# .PCD v0.7 - Point Cloud Data file format
VERSION 0.7
FIELDS x y z nx ny nz
SIZE 4 4 4 4 4 4
TYPE F F F F F F
COUNT 1 1 1 1 1 1
WIDTH 736
HEIGHT 1
VIEWPOINT 0 0 0 1 0 0 0
POINTS 736
DATA ascii
0.018333297 -0.13203132 -5.2732363 -0.30326504 -5.0080872 -0.38296974
-1.3129718 -0.059482336 -5.2034259 -2.4744554 -1.363562 -3.5725811
-1.2348179 -0.064666621 -5.2452216 -2.3078973 -0.1908686 -3.2020361
-1.1190174 -0.068266898 -5.2921181 -1.6100891 0.38732594 -2.8434782
-0.99501425 -0.076955609 -5.2995348 -1.0029645 0.28500864 -2.1281111
-0.83172715 -0.088664249 -5.3074007 -0.45348617 0.55155551 -0.31927973
-0.7103194 -0.088815451 -5.3147731 -0.048045278 1.7303987 0.49685389
-0.5985406 -0.11128096 -5.2759042 1.842773 0.40130794 -0.39787236
-0.46309552 -0.092646062 -5.264123 3.1995704 -3.0335774 -1.1401117
-0.35309827 -0.044171017 -5.2681031 2.7225153 -5.1304913 -2.1822948
-0.14935225 -0.024257621 -5.236557 -4.8951187 -3.9332747 -0.69703567
-0.075039759 -0.083198696 -5.2650738 -3.0563855 -4.9946871 -0.55097687
0.070618927 -0.10275718 -5.2582407 0.98799294 -5.0684252 -0.43474489
0.18844132 -0.033232979 -5.2577395 4.0553331 -4.2772837 -0.61362875
-1.2364415 0.065102421 -5.2635469 -3.5634992 -1.1905675 -3.8526917
-1.1499199 0.021319849 -5.3250756 -2.4551578 -1.9725254 -3.8957989
-0.30890363 0.066928588 -5.2541685 2.878849 -2.9766512 -2.29372
-0.19947144 0.064351112 -5.2652464 -4.6889377 -2.6125019 -0.84146446
0.24666916 0.026051952 -5.2708001 5.5323014 -4.0447001 -0.76459712
0.2793946 0.10337122 -5.2643523 5.3517542 -3.6821587 -0.77066106
-1.3293154 0.2178297 -5.2294335 -4.5543728 -0.49087223 -3.7910509
-1.248387 0.17601192 -5.2849813 -4.0774274 -0.99627429 -3.9027684
-0.29390088 0.20320553 -5.2636404 1.8616322 -1.3057127 -2.2412763
-0.24147122 0.17435251 -5.2531991 -4.2230468 -2.1227503 -1.0720924
0.31397781 0.18883911 -5.2620726 5.0680995 -3.287719 -0.76424646
-1.3529749 0.33057961 -5.2515755 -4.7530107 -0.43248773 -3.7391925
-1.2852583 0.30770338 -5.3085485 -4.4018002 -0.84012634 -3.8927493
-0.31546292 0.33088776 -5.2649908 -0.95030391 -1.1014652 -1.3105205
0.36391753 0.31974569 -5.2672148 4.8653874 -2.841234 -0.69484723
-1.3816164 0.46045166 -5.2605906 -4.8836312 -0.42360762 -3.5154133
-0.40803635 0.47387344 -5.2730236 3.3629477 0.66792256 -1.1985958
-0.34963718 0.44422805 -5.2553172 -1.188378 -1.0931705 -1.5524007
0.41410819 0.45575652 -5.2628045 4.7959399 -2.4680736 -0.59719098
-1.4351686 0.61416525 -5.2198782 -4.911931 -0.43219393 -2.8636963
-1.3970459 0.56946355 -5.2872763 -5.025034 -0.42284903 -3.4609795
-0.42401484 0.59608001 -5.2726874 1.9118805 0.040037096 -2.0539551
-0.36860025 0.57281917 -5.2744474 -3.3040352 -1.7610328 -1.8278929
0.46959013 0.58552265 -5.2614808 5.1235046 -2.1920655 -0.61771071
-1.4439251 0.72336221 -5.2482677 -4.9872451 -0.42953554 -2.7592225
-1.4206183 0.70705622 -5.2968874 -5.0845604 -0.4742178 -3.1673961
-0.43106914 0.7037366 -5.2942004 -0.29986796 -0.78151554 -2.438427
0.50453955 0.66595542 -5.2906179 5.5552211 -2.1090846 -0.61497366
0.5478341 0.72175413 -5.2519898 6.1405468 -2.1527295 -0.98637611
-1.4527612 0.85132694 -5.2670827 -4.9631419 -0.069112487 -2.3837793
-0.47222337 0.83053315 -5.3128982 -0.97904301 -1.0646685 -2.2988753
0.61130482 0.8444103 -5.2703085 6.9709187 -2.1847525 -1.2439692
-1.4570185 0.97209877 -5.2613759 -4.8775167 0.36409914 -2.0018764
0.64001894 0.96634781 -5.2665191 6.8470397 -2.0131507 -1.332209
-1.4448441 1.0964432 -5.2325068 -4.7826614 0.86544681 -1.7820251
-1.4079469 1.0935419 -5.3032718 -4.9072576 0.71852195 -2.4875705
0.66028994 1.0986437 -5.2484989 6.3882957 -1.7624947 -1.4029403
-1.3900023 1.2337475 -5.2726049 -4.8634014 1.2560537 -2.3131647
0.67939138 1.2249206 -5.2641501 6.0432634 -1.5240787 -1.3324324
-1.3502462 1.3832787 -5.2677302 -4.9912248 1.7239627 -2.5076604
0.70071882 1.3656189 -5.2673426 5.5469446 -1.2820807 -1.3132807
-1.3192675 1.489622 -5.2598982 -5.1826615 2.0207884 -2.6901767
-1.2925147 1.5347784 -5.3080759 -5.0581789 2.1687593 -3.0423048
0.72218692 1.4950553 -5.2661171 5.0893607 -1.0730225 -1.3425442
-1.3048232 1.5604572 -5.2302876 -5.4130011 2.2059157 -2.6860476
-1.2737811 1.6238433 -5.2729721 -5.3389063 2.4025595 -3.0484564
0.748124 1.630278 -5.2613444 4.6004543 -0.88818622 -1.4443229
-1.2173946 1.7484764 -5.2595911 -5.2080865 2.8449135 -3.3593116
-1.1692522 1.8021892 -5.2872381 -4.6702123 3.0314724 -3.5863552
0.76071566 1.7579944 -5.278604 4.0990152 -0.6488269 -1.2867432
0.79130912 1.7532494 -5.2221599 4.2014513 -0.85465336 -1.9959204
-1.1751262 1.851483 -5.2106943 -5.160573 3.2314007 -3.4668233
-1.1051276 1.8830084 -5.2663207 -3.8834045 3.215591 -3.4459615
-1.0276331 1.9262896 -5.3067594 -2.5017848 3.2089057 -3.3137579
-0.69648135 1.9285451 -5.3174648 0.16380876 1.0580479 -2.1995368
0.77353036 1.8723335 -5.2955589 4.4624014 -0.33079016 -1.5698098
0.80066371 1.8982997 -5.2442064 4.8102398 -0.3956272 -2.3145268
-1.0410515 1.9710487 -5.236619 -3.1548717 3.4302592 -3.300657
-0.97950822 2.0071771 -5.2622066 -2.1373355 3.3431611 -3.3438935
-0.85425723 2.0198779 -5.2833438 -0.0053250315 3.1509855 -3.9333386
-0.72690773 2.0159047 -5.2774553 -1.2862394 0.54647392 -1.9476569
0.7706368 2.031152 -5.3156176 6.172586 0.3626197 -2.6498981
0.80925268 2.0178564 -5.2429056 5.8607249 0.059406757 -2.9573169
-0.91999108 2.0861409 -5.2245936 -1.6562842 3.2273972 -3.7055657
-0.81978029 2.1228361 -5.2230711 -1.6622355 2.08497 -3.4229751
-0.75168234 2.1371617 -5.2701321 -4.0099168 -0.12506102 -1.3815318
0.75906658 2.1421876 -5.3106427 5.9197679 0.66502106 -2.2986808
0.81018072 2.1428938 -5.2424421 6.5769982 0.55305243 -3.3305964
-0.7908501 2.2514868 -5.2299571 -4.8743143 0.51447761 -2.0047231
-0.75476873 2.2806878 -5.2832427 -5.3137469 0.66076291 -1.7721514
0.75209647 2.2735655 -5.2804899 5.8173366 1.2899717 -2.2148211
0.79448164 2.2430987 -5.2182798 6.4488478 1.3605971 -3.1640515
-0.71789283 2.391959 -5.2650738 -4.8641467 1.6923118 -1.6876472
0.71852952 2.39763 -5.2698469 5.6121411 2.4301791 -2.0208087
-0.67947912 2.4857428 -5.2460999 -4.4213295 2.3984685 -1.488071
-0.62505645 2.5561366 -5.2715101 -4.8093662 2.8143427 -1.4989011
0.61915487 2.5637491 -5.2736301 4.9421749 3.3923922 -1.4933972
0.67459369 2.5001636 -5.2434521 5.3378706 3.2229393 -1.8942312
-0.56269914 2.6448002 -5.2655177 -4.7723083 3.8981342 -1.2353187
-0.50028801 2.7084761 -5.2731247 -4.7402968 4.8483353 -1.1373429
0.5090459 2.717896 -5.2660246 4.17665 4.3445845 -1.0046659
0.55775368 2.6495242 -5.2678556 4.4458904 3.7815683 -1.1198876
-0.43440372 2.7739875 -5.2503915 -4.7353377 5.7752547 -1.1300004
-0.33307499 2.8353968 -5.2570705 -3.9259551 6.079855 -1.0468835
0.35486388 2.8366179 -5.2606368 3.4385657 5.1505337 -0.67819452
0.4397018 2.7762485 -5.2619491 3.8693407 4.7524648 -0.82827586
-0.28568047 2.8662724 -5.2047567 -3.2953644 6.0945311 -0.99206579
-0.19420598 2.9048779 -5.2651238 -2.4250321 6.0199418 -0.89996183
-0.072637454 2.9682081 -5.2731004 -0.93802953 5.9292407 -0.75564665
0.098195247 2.9649217 -5.2717972 1.4823763 5.8404441 -0.62780637
0.18801759 2.9171302 -5.2750883 2.3703127 5.5899677 -0.62615454
0.27763519 2.8742528 -5.2624712 2.9476032 5.354496 -0.65421051
-0.033508986 2.992908 -5.2500734 -0.33859301 5.9022131 -0.70109248
0.025701463 3.0038223 -5.269845 0.49122334 5.8758273 -0.64358139
-1.1731174 -1.8205986 -5.1928229 -2.7070339 -4.918643 1.8117229
-1.079551 -1.8389504 -5.1500082 -1.4619269 -4.8758259 2.6134799
-0.96470785 -1.8339703 -5.1541576 0.27502713 -4.8193083 2.7880735
-0.86925089 -1.8344928 -5.1993532 1.6910875 -4.6714811 2.7405267
-1.2328186 -1.7465465 -5.1389112 -3.3016651 -3.994668 1.5710175
-1.1333749 -1.8098091 -5.1038961 -2.0534797 -5.1133494 2.3057773
-0.96935189 -1.8043392 -5.0865178 0.4118534 -5.0722399 2.7314222
-0.83927339 -1.7993559 -5.1354632 2.3763993 -4.9059415 2.6537321
-0.74466729 -1.7417727 -5.1460028 3.8855457 -4.4940009 2.5658205
-1.3371074 -1.6118385 -5.1316724 -4.7650857 -2.6499267 0.84055209
-1.2865518 -1.6782386 -5.1082983 -3.9216449 -3.1953034 1.2916808
-0.68625498 -1.639123 -5.116818 4.9635539 -3.6610274 2.5867016
-0.632967 -1.5795808 -5.1473799 5.7693911 -2.9327819 2.543808
-1.3894442 -1.500191 -5.1321549 -5.3586559 -1.8769138 0.43735352
-0.59462732 -1.4953717 -5.1226935 6.215703 -2.5676639 2.507138
-1.4074329 -1.3730115 -5.1360192 -4.6103301 -1.2994074 0.26885763
-0.54516268 -1.3780191 -5.1162333 6.3813691 -2.3164685 2.3195622
-0.51676697 -1.3404949 -5.1640201 6.3793612 -2.1520529 2.1456885
-1.447134 -1.1924651 -5.1396904 -4.6725955 -0.97210181 0.073629685
-1.4238141 -1.2684333 -5.1293364 -4.1816397 -0.92997694 0.17297925
-0.47746992 -1.2315449 -5.1366019 6.5096297 -1.9887547 2.0124295
-1.4785833 -1.0885228 -5.132751 -5.3742638 -1.0759367 0.0014454462
-0.43020248 -1.1018778 -5.1315455 6.4507642 -1.6433496 1.7764685
-1.5062691 -0.97214752 -5.1379972 -5.9101729 -1.1713037 -0.12829475
-0.41072422 -0.99645185 -5.1106305 5.9977546 -1.1776515 1.5878233
-0.38382527 -0.95512807 -5.1593442 6.0147424 -1.0117426 1.4606991
-1.5114766 -0.84677255 -5.1326418 -6.6204596 -1.2084697 -0.36858749
-0.39650792 -0.87702149 -5.0915947 5.502202 -0.65109682 1.5015211
-0.37520692 -0.83854455 -5.1409578 5.5579848 -0.50890386 1.4534374
-1.5357262 -0.72009093 -5.1368103 -6.525281 -0.77829868 -0.47030032
-0.36835572 -0.72246999 -5.1354737 5.1382446 0.013941159 1.3713936
-1.5475216 -0.60764706 -5.1324883 -6.8245988 -0.055291869 -0.73135567
-0.39878339 -0.52714503 -5.0806041 4.6292934 0.98103482 1.5114522
-0.37229517 -0.59057117 -5.1278896 4.7765245 0.65405983 1.3382593
-1.5297762 -0.45450741 -5.135035 -5.9208627 1.3673506 -1.042792
-0.40760145 -0.43551251 -5.1211824 4.6959682 1.5121148 1.4411881
-0.386015 -0.48740423 -5.154026 4.7963037 1.2388407 1.3306084
-1.4906148 -0.32459411 -5.1353068 -5.3179374 2.7437384 -1.598967
-0.52963197 -0.26120278 -5.0826039 4.0046916 1.175585 1.151746
-0.4374679 -0.32160887 -5.1316967 4.6334991 2.0384092 1.4102896
-1.4426388 -0.20764728 -5.1117473 -5.0891013 1.8016732 -2.4977028
-1.3862921 -0.16855468 -5.1487546 -4.3460617 1.6817936 -2.6649442
-0.54595351 -0.17736575 -5.125524 3.7966893 0.66910774 0.74945164
-0.4811902 -0.21057311 -5.1694984 4.2292876 1.3827791 0.94820732
-0.00522717 -0.13294877 -5.1343775 -0.94307584 -4.4730015 -0.49068421
0.027989687 -0.13479328 -5.1389041 0.12609509 -4.2805519 -0.45295423
-1.3793619 -0.057581659 -5.1171889 -4.3562036 -0.0066619143 -3.3595219
-1.2996733 -0.10350774 -5.1706591 -3.3225684 0.60004103 -3.0208759
-0.45017576 -0.10222179 -5.1334233 3.0183144 -3.3097165 -1.0481908
-0.31793571 -0.044844106 -5.1263251 2.2863572 -4.3451319 -1.8984665
-0.14497173 -0.030806422 -5.1310349 -4.8996439 -4.4313889 -0.79256988
-0.081145838 -0.089979254 -5.1337399 -3.5778794 -5.2285624 -0.65908623
0.095549688 -0.10163489 -5.1271114 1.8135189 -4.6786075 -0.50015938
0.17832072 -0.047583207 -5.1411233 3.9643245 -4.5211167 -0.61384457
-1.3534735 0.068215497 -5.1428251 -4.4074135 -0.32686242 -3.597085
-0.27983111 0.056348424 -5.1718869 2.6883562 -2.4568126 -2.0643799
-0.21100909 0.062708408 -5.1266494 -2.334728 -2.6415796 -1.2410148
0.24712324 0.035693888 -5.1392608 5.8361521 -4.1891823 -0.77500892
0.27443418 0.098597735 -5.1420126 5.7018423 -3.8839216 -0.78161722
-1.3903972 0.19498938 -5.1312666 -4.6122689 -0.24239935 -3.3090138
-0.2834686 0.21188657 -5.1267715 0.80391192 -0.92734927 -1.4160749
-0.25048229 0.17266341 -5.1358862 -1.9074376 -1.6859702 -1.46068
0.30893633 0.18317448 -5.1379218 5.4005785 -3.4792256 -0.7813217
-1.4385971 0.30802166 -5.0742712 -4.5429654 -0.28075087 -2.6062622
-1.4114716 0.32248083 -5.137619 -4.6644082 -0.29552427 -3.0366261
-0.31342196 0.31363553 -5.1431999 -0.26303911 -1.0039403 -1.4668906
0.36158916 0.31025565 -5.1367874 4.9683785 -2.8793781 -0.79219997
0.39144686 0.38261062 -5.111125 4.8147678 -2.5855336 -0.80907977
-1.4520221 0.4487856 -5.1029811 -4.6389532 -0.34451777 -2.4604983
-1.422994 0.42450482 -5.1588907 -4.736825 -0.3422403 -2.9226243
-0.35074791 0.432116 -5.1689415 0.051375549 -1.0200757 -2.1763573
0.43039888 0.45637187 -5.1318283 5.0148911 -2.4483318 -0.94628048
-1.4644263 0.58666176 -5.1386142 -4.7476149 -0.39944479 -2.3516853
0.49356067 0.57287329 -5.1447945 5.5587378 -2.325367 -1.1972103
0.54159057 0.62786531 -5.1063862 6.4897285 -2.5824628 -1.6514924
-1.4819497 0.71684426 -5.1479669 -4.7596388 -0.24036904 -1.9907745
0.58161062 0.71335113 -5.1345925 6.6405406 -2.3959925 -1.7126486
-1.4989597 0.84765786 -5.1332426 -4.7841477 0.20803639 -1.4036546
0.62474757 0.82782269 -5.1337309 6.7760801 -2.2902129 -1.8675097
-1.4963847 0.98318648 -5.1385646 -4.9740491 0.58547693 -1.1494393
0.63998365 0.95360887 -5.1594133 6.5064368 -2.0715318 -1.8011101
0.66572231 0.98094428 -5.1065989 6.2308154 -2.0721529 -2.1115751
-1.4697673 1.106329 -5.1319661 -5.1279325 0.90253448 -1.2322158
0.68024939 1.1010332 -5.1417456 6.0365682 -1.8735136 -2.0380802
-1.446628 1.2026023 -5.1152678 -5.323391 1.1540583 -1.3127638
-1.4178296 1.2730402 -5.1425252 -5.3196349 1.361876 -1.6028435
0.72307003 1.2399889 -5.12358 5.5768471 -1.6845599 -2.2640982
-1.3936361 1.3622099 -5.1282248 -5.5166383 1.6051829 -1.7191885
0.74778855 1.3741475 -5.1434202 5.3369751 -1.5089638 -2.3645034
0.78055191 1.3894235 -5.0832028 4.8854022 -1.4071426 -2.4221573
-1.3498995 1.4925029 -5.1393766 -5.6748209 1.9750146 -2.0587428
0.75936443 1.4886872 -5.1749983 5.1289339 -1.3457321 -2.331347
0.80182904 1.509434 -5.1121688 4.9127955 -1.3115615 -2.6700172
-1.3167379 1.6099386 -5.125505 -5.9141903 2.2976649 -2.2382262
-1.2877545 1.6603384 -5.1741257 -5.7875996 2.4628887 -2.6067717
0.82665592 1.6303574 -5.1321807 4.8115916 -1.1979271 -2.8138156
-1.2498291 1.7601126 -5.1337337 -5.7964211 2.8108308 -2.7097068
0.85632676 1.7433919 -5.1368403 4.8147597 -1.0220563 -2.9860327
-1.1920151 1.8755727 -5.111155 -5.5719657 3.2624722 -3.0015683
-1.1403484 1.9336538 -5.154839 -5.0431037 3.4968486 -3.3812838
0.87033755 1.8873662 -5.1320257 5.4658523 -0.434699 -3.2180917
-1.0914152 2.014601 -5.1200929 -4.6092782 3.7285881 -3.3031294
-1.0157766 2.0529926 -5.1678514 -3.2414618 3.7139039 -3.2108195
0.87230146 2.0122938 -5.1354537 6.0436597 0.12171994 -3.3283975
-0.96818656 2.1289363 -5.1221128 -2.9578371 3.6772838 -3.490381
-0.8490693 2.1717434 -5.1655536 -1.9845631 2.2569346 -3.5315447
-0.77621168 2.1571629 -5.1913891 -2.3184044 0.23578602 -2.0748155
0.86865968 2.1423254 -5.1386628 6.442543 0.88716674 -3.2071881
-0.83139139 2.2711916 -5.1294622 -3.7878549 2.3280659 -3.0301664
-0.7720207 2.3342881 -5.1931806 -4.884326 1.6078672 -2.0548301
0.8303526 2.2767241 -5.1293783 6.1010418 1.9909426 -2.7110975
-0.80263841 2.3671637 -5.0929117 -4.8809633 3.0753303 -2.7837605
-0.74664366 2.4296255 -5.1385546 -4.7218418 2.8525798 -2.149184
0.75518245 2.4171436 -5.1577811 5.6889477 2.9165785 -2.3263676
0.80059934 2.3712335 -5.1050286 5.7541819 2.7375045 -2.3402619
-0.68836743 2.5197284 -5.1255565 -4.6038384 3.2378383 -1.7107698
-0.63321233 2.58463 -5.1570702 -4.5573196 3.2782726 -1.3112644
0.63778782 2.5767312 -5.159893 4.7897329 3.568007 -1.6466432
0.69286746 2.5227551 -5.1334891 4.8127298 3.1589959 -1.8268195
-0.57593846 2.6609831 -5.1310444 -4.5949774 4.1497593 -1.1751374
-0.51034063 2.7163286 -5.1796665 -4.6703901 4.9377627 -1.141873
0.58561647 2.6562319 -5.1314301 4.2025108 3.8298688 -1.2659442
-0.44598022 2.7843111 -5.125257 -4.5909953 5.8572302 -1.1315148
-0.3466925 2.8445663 -5.1334109 -3.8090611 6.1641059 -1.0508587
0.3564935 2.8493547 -5.1331062 3.197403 5.1744595 -0.71294272
0.45568153 2.7779653 -5.1318178 3.6886404 4.6993971 -0.89656556
-0.29202241 2.8752301 -5.1111336 -3.1634836 6.1567516 -0.99085784
-0.20610173 2.9156182 -5.1361132 -2.2778141 6.1069279 -0.90165263
-0.1080808 2.9671879 -5.1223764 -1.1766477 6.0770264 -0.79629892
0.098863497 2.974026 -5.1559801 1.5125087 5.8543091 -0.63578415
0.19609575 2.9275451 -5.1366773 2.1772449 5.5981255 -0.66319388
0.30170789 2.8764398 -5.1307645 2.8419299 5.3199553 -0.69690704
-0.032863654 3.0070789 -5.1267738 -0.2129494 6.0121059 -0.70313215
0.047449887 3.0045574 -5.1260843 0.91940391 5.9902377 -0.64598775
-1.2113569 -1.7215 -5.0160027 -2.7992227 -4.3370018 1.9811919
-1.117381 -1.7775416 -4.9977112 -1.6173613 -5.3212562 2.5697315
-0.97726947 -1.7724127 -5.0021152 0.42811236 -5.0349846 2.5635464
-0.84622306 -1.7455962 -5.0069718 2.3186839 -4.4861341 2.4171686
-0.76638085 -1.7125726 -5.0492048 3.7243099 -4.6707678 2.6768234
-1.32472 -1.5972797 -5.0070534 -4.2247496 -2.6627502 1.2617484
-1.2681414 -1.664441 -5.0067382 -3.4507084 -3.4070671 1.6618378
-0.80453265 -1.6814554 -4.9442759 2.9625945 -4.4774895 2.6871152
-0.71891916 -1.6261069 -5.0127816 4.6179447 -4.036746 2.7337217
-1.3702329 -1.4955089 -4.9948239 -5.5948591 -2.3438401 1.057875
-0.66909075 -1.5475639 -4.992137 5.5631337 -3.4244919 2.7714536
-0.62081313 -1.4825007 -5.0074763 6.2551894 -2.8084569 2.7302544
-1.3970131 -1.3599756 -5.0024261 -5.531599 -1.8269007 0.87734586
-0.56694251 -1.3595073 -5.0019879 6.493258 -2.4958556 2.5419741
-1.4401984 -1.2028335 -5.0353098 -4.985302 -1.2788043 0.44998595
-1.4180217 -1.2596085 -5.000401 -5.3896422 -1.5810903 0.76252949
-0.53213006 -1.2598945 -4.9836802 6.5243492 -2.2911246 2.3982501
-0.49894086 -1.1953849 -5.0195322 6.4553256 -2.0424657 2.1943805
-1.4701248 -1.103717 -5.0052509 -5.6190524 -1.4035872 0.43677092
-0.47958422 -1.0947331 -5.001905 6.0252976 -1.5956999 2.0094047
-1.5102975 -0.97799033 -5.000421 -5.7956352 -1.2750425 0.21625283
-0.44786489 -0.96682358 -5.0005617 5.5090041 -1.0126715 1.7311355
-1.5283767 -0.85665101 -5.0085793 -6.2181592 -1.1671736 -0.11919864
-0.42122021 -0.85249484 -5.0113707 5.1250892 -0.51301485 1.5719098
-1.5346228 -0.72397202 -5.0066824 -7.1688852 -1.1474165 -0.41849884
-0.41444388 -0.71168256 -4.9973435 4.6651292 0.094170384 1.5882659
-1.5394344 -0.59350038 -5.007689 -6.835876 -0.30288801 -0.6136803
-0.42976528 -0.58818537 -4.9889636 4.4816432 0.66868019 1.6075029
-0.38802546 -0.63004273 -5.0500512 4.6097736 0.41650483 1.5457504
-1.5332723 -0.45511022 -5.0162897 -5.9334397 0.86145157 -0.80870134
-0.45217925 -0.45923349 -4.9974122 4.4119263 1.328192 1.5990309
-1.4976481 -0.31702793 -5.0115294 -5.5610957 1.1223146 -1.5964594
-0.53313583 -0.29510027 -5.006372 4.326715 0.78961629 1.157638
-0.49725074 -0.35115802 -5.0049686 4.3027201 1.3509783 1.421052
-1.4660393 -0.18656342 -4.9927206 -5.3713927 0.54557645 -2.5323231
-0.54616952 -0.20940606 -5.010273 4.2585907 -0.13385871 0.65218461
-0.50087273 -0.14652821 -5.0028324 3.1962109 -1.7020622 -0.15611517
-0.0036861617 -0.14174761 -5.0211697 -0.74636596 -3.8509321 -0.55041641
0.052527532 -0.14393839 -4.9925742 0.76185763 -4.189321 -0.61078614
-1.4674777 -0.071626723 -5.0087929 -4.6724281 0.15382755 -2.5943756
-0.42775807 -0.10002528 -5.0025196 2.7164121 -4.1410351 -1.3078454
-0.32715318 -0.06939584 -4.9997301 1.6775373 -4.612648 -1.7391225
-0.19665806 -0.034154989 -4.9947858 -0.43093315 -3.3279793 -1.2106702
-0.081389256 -0.099435776 -5.0051875 -3.4732895 -5.0727806 -0.73643768
0.10030383 -0.11374495 -5.0245929 2.0130584 -4.4045053 -0.58725607
0.18107241 -0.046870299 -5.0013304 4.3640156 -4.6276646 -0.700634
-1.4794034 0.066818155 -4.9989519 -4.4123254 -0.16890529 -2.366451
-1.4284638 0.064198837 -5.0551805 -4.4606099 -0.18044405 -2.9232407
-0.20967779 0.054506801 -5.0118756 -0.27981302 -2.0721781 -1.3257884
0.23677027 0.024206929 -5.0123663 6.0345221 -4.4157662 -0.77879924
0.27817044 0.10470524 -5.0105529 6.1545806 -4.1141505 -0.85231495
-1.4818319 0.1981291 -5.0105019 -4.4796157 -0.21505415 -2.2225163
-0.27241123 0.21751818 -5.0402603 -0.23731515 -1.3968452 -1.704636
-0.25071067 0.14824854 -5.0261846 -0.42494035 -1.3912573 -1.2850997
0.33185601 0.20858741 -5.0054183 6.2094116 -3.829459 -1.0225221
-1.4856256 0.32263193 -5.0174932 -4.5643511 -0.24883458 -2.0630391
0.37800273 0.29507476 -5.0156832 6.3902988 -3.6344161 -1.2019614
0.4154996 0.34426862 -4.981575 6.5485411 -3.647716 -1.405647
-1.5058062 0.44842136 -4.9929996 -4.7615418 -0.22392815 -1.6841437
0.47167927 0.45332557 -5.0042272 6.6681762 -3.3461602 -1.5975361
-1.5103066 0.58015084 -5.0039515 -4.8419456 -0.25730887 -1.5219988
0.50815594 0.53875059 -5.0531511 6.8339128 -3.0582426 -1.6988999
0.55751628 0.60091639 -4.995523 6.7822104 -3.0191183 -1.9289165
-1.5147663 0.7203806 -4.9959469 -5.188014 -0.020073889 -1.2217515
0.61618638 0.71430862 -5.0052195 6.7760286 -2.7115982 -2.1042809
-1.5135248 0.8499186 -5.0147524 -5.4517851 0.31308594 -1.0056518
0.63644236 0.78279412 -5.0327787 6.5366545 -2.4485881 -2.0335135
0.66835821 0.86049807 -4.992548 5.923851 -2.2609477 -1.9574287
-1.5065752 0.96034634 -5.004827 -5.7550874 0.60152978 -0.85485822
0.69594353 0.98001593 -5.0161057 5.356729 -1.9062651 -1.8433812
-1.4805139 1.0968689 -4.9999685 -5.8725128 0.92402685 -0.90088767
0.73130161 1.1097177 -5.0131655 4.817678 -1.6362998 -1.8463663
-1.4530517 1.2338678 -5.0006847 -5.9516706 1.2454346 -0.97313905
0.76300544 1.2264599 -5.0085239 4.3954506 -1.4278954 -1.8944225
0.78984207 1.2583903 -4.9554806 3.675626 -1.2366388 -1.6637164
-1.4350846 1.322868 -4.9829402 -6.1179552 1.4656512 -0.99455345
-1.4166131 1.387629 -5.0052047 -6.0645785 1.6263922 -1.1411316
0.77674532 1.319845 -5.0399408 4.5317311 -1.3812757 -2.1365862
0.80869997 1.3683051 -4.998076 4.0401359 -1.2579306 -2.0524395
-1.3842268 1.4939111 -5.006494 -6.2146983 1.9195957 -1.3587421
0.84856635 1.4915587 -5.0082955 4.1653366 -1.2531115 -2.3971424
0.91168195 1.5383892 -4.9439912 4.109674 -1.3821764 -2.5918026
-1.3441828 1.6273872 -4.9997201 -6.450377 2.2903333 -1.6103164
0.88815451 1.6215516 -5.0271335 4.4065552 -1.2718972 -2.8050439
0.92404383 1.6395315 -4.9842553 4.3736467 -1.2823517 -2.8597734
-1.3149168 1.720318 -4.9899817 -6.5861716 2.559778 -1.7748418
-1.2797115 1.7693039 -5.0189843 -6.3243556 2.771553 -2.1062303
0.9070729 1.7730142 -5.0620193 4.8836946 -0.80389309 -3.0392737
0.94387639 1.7594774 -4.9973879 4.7643719 -0.7345413 -2.9504204
-1.222643 1.8812243 -5.0004606 -6.0905313 3.2115872 -2.4078023
0.94743913 1.8874992 -5.0007162 5.3401608 -0.15864509 -3.0545592
-1.1794157 1.9663154 -4.9858503 -5.9153042 3.5457883 -2.63416
-1.1381669 2.0247619 -5.0118618 -5.606432 3.7965317 -2.9827149
0.945629 2.0092149 -5.0099163 5.818512 0.50026447 -3.0032682
-1.0822999 2.1242383 -4.9891582 -5.2458372 4.1475348 -3.1277187
-1.0047741 2.1873357 -5.0120177 -4.1668377 4.1062775 -3.344836
0.90984476 2.1809449 -5.0533199 6.221467 1.516167 -2.7868021
0.94454259 2.1388428 -5.0038414 6.1175981 1.3755547 -2.738822
-0.94846851 2.2686448 -4.9915671 -4.5838685 3.9876168 -3.2462718
-0.88243032 2.29776 -5.0448112 -4.3242531 3.6177046 -3.2637522
0.88177991 2.2776918 -5.0144486 5.8605723 2.2329192 -2.4182429
0.92357457 2.2366543 -4.9598603 5.8796272 2.0317876 -2.4211721
-0.82773286 2.3969758 -5.0037103 -4.9006486 3.6923954 -2.658659
-0.76437032 2.4533596 -5.0350547 -4.7669878 3.5643852 -2.3731532
0.82288235 2.3997064 -4.9986625 5.5036774 2.8950756 -2.1289012
-0.70949489 2.5466373 -4.9979906 -4.3950958 3.825192 -1.718663
0.73119116 2.5344231 -5.0146332 4.2170806 2.9348493 -1.5705429
0.78835624 2.4855556 -4.9496837 4.7884126 3.066721 -1.7518268
-0.65217328 2.6138864 -5.012691 -4.3331251 3.9453936 -1.3083482
-0.58094001 2.681134 -5.0092545 -4.4782982 4.4887152 -1.1845798
0.58627582 2.6941676 -5.0168467 3.6614957 3.8476138 -1.1199439
0.66935766 2.632648 -4.991858 3.0120156 2.8308678 -1.0330087
-0.52625763 2.7409627 -4.9663191 -4.5163155 5.2403011 -1.1517067
-0.45328727 2.7975671 -5.0071855 -4.4593725 5.9873075 -1.1328294
-0.37466979 2.8486571 -4.9927273 -3.8125722 6.2648792 -1.0686517
0.3726294 2.8527861 -5.0263047 3.090035 5.155407 -0.74653602
0.45933709 2.7905567 -5.0037904 3.4765916 4.7389636 -0.93507189
0.5325653 2.7440438 -4.964324 3.9072659 4.5612268 -1.1559658
-0.31274766 2.8790359 -5.000957 -3.1532769 6.2352057 -1.0035328
-0.18983091 2.9404342 -5.0088639 -1.8264438 6.1816783 -0.87355471
-0.098949805 2.9859366 -5.013895 -0.84367013 6.142622 -0.77738321
0.11093875 2.9800887 -5.0346336 1.4305744 5.8460684 -0.66469789
0.1984823 2.9404027 -5.0045176 1.931798 5.6210723 -0.69941545
0.30904275 2.8868375 -4.9989409 2.6288362 5.3297329 -0.73454356
-0.045308139 3.014426 -5.0067306 -0.22088723 6.1215301 -0.71787244
0.045856744 3.0177679 -4.9864464 0.85034311 6.0220823 -0.66348207
-1.1846434 -1.7118599 -4.9245477 -2.307344 -4.7826753 2.3458309
-1.1129224 -1.7324555 -4.8846011 -1.4253381 -5.3029819 2.645472
-0.98753232 -1.7286488 -4.8774829 0.14735411 -4.159142 2.2513072
-0.88392502 -1.7113197 -4.8933997 1.5749359 -3.5913687 2.0945904
-1.3108358 -1.5715556 -4.9129753 -4.2821569 -2.793766 1.6654869
-1.2402009 -1.6328523 -4.8823709 -3.0506291 -3.5997455 2.0037389
-1.1241231 -1.6874827 -4.8201103 -1.6025989 -5.0852952 2.7476907
-0.97744304 -1.6830132 -4.8118238 0.2879895 -4.0559683 2.4464931
-0.83014697 -1.6483328 -4.8634648 2.5041804 -4.0592079 2.5951467
-0.75488389 -1.5939131 -4.8923388 3.9791095 -4.1683226 2.8832309
-1.3332525 -1.4863421 -4.873363 -5.9103379 -2.865526 1.796868
-1.283967 -1.5434785 -4.838387 -4.3911915 -2.9861593 1.907497
-0.69352019 -1.5062082 -4.8690743 5.2837906 -3.5652206 2.9377785
-0.63496792 -1.4555779 -4.9116058 6.3321576 -2.9566996 2.8917427
-1.3699591 -1.3769779 -4.8703766 -7.0870299 -2.6663325 1.7135878
-0.60469812 -1.3653675 -4.8740883 6.5404873 -2.7246132 2.8325195
-1.4339876 -1.1900382 -4.9365678 -6.4350853 -1.9620264 1.0080602
-1.4087937 -1.2419643 -4.8700051 -7.0236869 -2.3784349 1.4704416
-0.56314665 -1.2260057 -4.8774219 6.1613498 -2.1785235 2.52929
-1.4525524 -1.1063428 -4.8776207 -6.3682404 -1.9076587 1.0713912
-0.54349995 -1.1042284 -4.8500614 5.6895728 -1.6847883 2.2993419
-0.50781286 -1.0648584 -4.9136696 5.6089964 -1.4355507 2.1108444
-1.4900833 -0.98336631 -4.876338 -5.450479 -1.3774607 0.70764476
-0.52616638 -1.0226531 -4.8420367 5.3887272 -1.3444591 2.1284087
-0.49607071 -0.96628904 -4.8812408 5.2306352 -1.0573624 1.9390826
-1.5262603 -0.84308869 -4.8808274 -4.9950495 -0.93789834 0.26779714
-0.47166425 -0.85046893 -4.8731742 4.8582082 -0.59873915 1.7054961
-1.5609424 -0.6809752 -4.8177457 -7.0216846 -1.2537485 -0.17288515
-1.5454937 -0.71333921 -4.8704662 -6.5387254 -1.1222314 -0.15861978
-0.46682945 -0.72531796 -4.883296 4.6483903 -0.049103353 1.6409562
-1.5728773 -0.58169782 -4.8548646 -5.1590428 -0.42935696 -0.58136249
-1.5493869 -0.61174673 -4.925983 -6.4145899 -0.62570405 -0.5590679
-0.48034307 -0.59493405 -4.8744035 4.6272774 0.42989624 1.6244147
-1.5729783 -0.47579139 -4.8548603 -4.8682499 0.32248759 -0.81196165
-1.5518755 -0.43981299 -4.9102702 -5.6916614 0.65872586 -0.83315861
-0.49564734 -0.46450716 -4.8760438 4.607039 0.82375187 1.5666009
-1.563221 -0.37610838 -4.8190289 -6.2861547 0.67694324 -1.0842963
-1.5291468 -0.31842667 -4.8780284 -6.0232759 0.65835285 -1.584203
-0.54351985 -0.30812356 -4.8821459 5.1646676 -0.20529689 0.95597267
-0.51383448 -0.38596231 -4.9007435 4.6723223 0.68509716 1.3732977
-1.5250959 -0.20266588 -4.8704796 -5.5442977 0.26729488 -1.9158268
-0.53050601 -0.23318593 -4.889431 4.510067 -1.1925567 0.38944697
-0.48765036 -0.17013386 -4.8643541 3.2561274 -2.4434106 -0.29042298
-0.047752809 -0.15143383 -4.8869843 -1.9386059 -4.3909721 -0.51607949
0.055733483 -0.16870658 -4.8733854 0.80062366 -4.7282972 -0.78773677
-1.5334123 -0.071854569 -4.8708153 -5.228889 0.080002263 -1.7353309
-0.42334342 -0.1048308 -4.8826671 2.5703857 -4.2722244 -1.2697698
-0.31885579 -0.082626283 -4.866888 1.1167439 -4.4182816 -1.5279855
-0.19531715 -0.058369428 -4.8683982 1.1993206 -2.2270203 -1.3742024
-0.10565025 -0.09287975 -4.8714747 -1.7185427 -3.4330049 -0.63214093
0.12776954 -0.11964652 -4.8644876 2.9907472 -4.8563328 -0.93303192
0.17769639 -0.05766179 -4.8786469 4.5011716 -4.7392716 -0.95308608
-1.5285712 0.066119194 -4.8790131 -5.2621546 0.083668746 -1.6334257
-0.19219881 0.023232671 -4.9149027 0.9768731 -1.3436038 -1.2230078
0.24700224 0.023982847 -4.8939309 6.0689678 -4.2892518 -0.9142766
0.28920108 0.08529079 -4.8748264 6.1523476 -4.2519221 -1.071269
-1.525169 0.20082867 -4.8827448 -5.375453 0.10585108 -1.5084242
0.3554031 0.19342352 -4.8742256 6.3357267 -4.1796298 -1.2993302
0.39529309 0.2533026 -4.8577652 6.3942738 -4.1421537 -1.4535005
-1.5258017 0.31700808 -4.8738756 -5.6030564 0.15351494 -1.3366811
0.43361601 0.32552406 -4.8677135 6.4473891 -3.9455349 -1.5851862
-1.5259155 0.45176175 -4.8641939 -5.8565869 0.2102223 -1.1442076
0.49238914 0.43634048 -4.8830976 6.5290661 -3.6436086 -1.7870342
0.53237617 0.49466646 -4.8545966 6.518189 -3.5566401 -1.957779
-1.5248121 0.58200473 -4.8700256 -5.9676762 0.20803261 -1.0124201
0.57149118 0.57221115 -4.8734956 6.5873146 -3.3293757 -2.0846872
-1.5247684 0.71507668 -4.8727841 -6.1206632 0.21822703 -0.85788816
0.63138503 0.68696433 -4.8887544 6.6399951 -3.014044 -2.2788985
0.66289419 0.73827565 -4.8588285 6.4904761 -2.9298954 -2.368957
-1.5246006 0.83836442 -4.8792672 -6.3358369 0.37057504 -0.67708343
0.68609601 0.83177322 -4.8792443 5.9008093 -2.5739319 -2.1797905
-1.5077338 0.97493756 -4.8690805 -6.5926232 0.70491099 -0.60071528
0.72916001 0.97855073 -4.8781829 4.88411 -2.0747421 -1.9193175
-1.4792526 1.1195955 -4.8686037 -6.6795664 1.0429622 -0.66767412
0.75954169 1.0958308 -4.8948216 4.1055908 -1.6425484 -1.6845695
0.79107344 1.1397045 -4.8501906 3.9960077 -1.7027061 -1.8320856
-1.456841 1.2323644 -4.8767838 -6.6956625 1.3022037 -0.73574907
0.83141178 1.2500317 -4.8750749 3.7991111 -1.5100174 -1.8920926
-1.4372656 1.333382 -4.8636336 -6.8338251 1.5446972 -0.75871509
-1.4248638 1.3948605 -4.8755946 -6.7972713 1.6822674 -0.80975306
0.87136477 1.3678135 -4.8989601 3.76542 -1.3939335 -2.0791929
0.9192661 1.3759232 -4.8193789 4.0329266 -1.7260631 -2.4321666
-1.4054846 1.4905787 -4.8765802 -6.8511658 1.9073057 -0.86374217
0.90263158 1.4664431 -4.914278 3.9273746 -1.3980131 -2.3719687
0.9541828 1.4970559 -4.8560138 3.933841 -1.5333112 -2.5512695
-1.3762525 1.6241529 -4.8655787 -7.0221386 2.2375088 -0.95217961
0.98344678 1.6181697 -4.8795748 4.1845999 -1.2011017 -2.7343876
-1.3307137 1.754246 -4.8743305 -7.0380487 2.622381 -1.2586716
-1.2965846 1.782872 -4.9388103 -6.6725683 2.772995 -1.7104099
1.007612 1.7505261 -4.888237 4.6172996 -0.54991645 -2.80797
1.0479641 1.7598882 -4.8225985 4.5872288 -0.37092373 -2.7355394
-1.3030673 1.8351632 -4.8211894 -7.0777717 2.8983698 -1.2460508
-1.2571033 1.8854302 -4.8797393 -6.6578422 3.1457295 -1.7529687
1.0122583 1.8860073 -4.8898373 5.1521101 0.17337689 -2.7782204
1.0500691 1.8828399 -4.8231821 5.3028498 0.40571496 -2.7022359
-1.202816 1.9904006 -4.8631787 -6.3833132 3.5265508 -2.0374882
-1.1542833 2.0587506 -4.8978729 -6.0545874 3.8489246 -2.4789376
1.0150108 2.0307269 -4.8849311 5.9881954 1.1154684 -2.6757169
1.0460131 1.9801985 -4.825839 6.1353073 1.0055791 -2.7655938
-1.114784 2.1431069 -4.8690181 -5.8473539 4.1055727 -2.6179082
0.99587822 2.1406283 -4.8785863 5.9725027 1.6319367 -2.4402282
-1.0651369 2.240057 -4.8490219 -5.5322261 4.4001169 -2.8428969
-1.0015807 2.2955019 -4.8862886 -5.1261978 4.3868847 -2.8356996
0.89218318 2.3272889 -4.9125123 5.5781078 2.5300643 -2.1672516
0.94018376 2.264379 -4.8709831 5.6716261 2.1983266 -2.2379656
-0.95028591 2.3678682 -4.8510675 -4.6653972 4.2724595 -2.4037585
-0.86787677 2.4197109 -4.8991036 -4.6021056 4.1836309 -2.2980785
0.86026591 2.4156392 -4.8682957 5.2444162 2.9851491 -1.9092072
0.91797352 2.3421478 -4.8174567 5.398118 2.6255884 -2.0056562
-0.80990291 2.4986846 -4.8618774 -4.0559387 4.0577474 -1.8308362
-0.73320019 2.5616879 -4.8798714 -4.0205317 4.1924014 -1.6369109
0.75590789 2.5638847 -4.8862643 3.6893663 2.9307356 -1.256487
0.80530399 2.516855 -4.8419976 4.2375689 3.0328605 -1.4427732
-0.6695559 2.621007 -4.8928814 -4.1486073 4.4577398 -1.4329109
-0.60342276 2.6855876 -4.8763871 -4.2973814 4.8798594 -1.288963
0.60575885 2.7063434 -4.8944793 3.3924003 3.8570175 -1.1118739
0.68169862 2.6470234 -4.8671784 3.229466 3.2713673 -1.0789973
-0.54366636 2.7456005 -4.8542981 -4.4053526 5.3882895 -1.1872959
-0.46116814 2.8115768 -4.8793745 -4.3072658 6.1166725 -1.1334347
0.46125335 2.8115926 -4.8799539 3.4134061 4.9698219 -0.9877193
0.54444075 2.7593994 -4.8587894 3.9044714 4.7673106 -1.2114341
-0.31400305 2.8942583 -4.8790298 -2.9049535 6.3134751 -0.99451512
-0.19677852 2.95365 -4.8800383 -1.6295561 6.2648268 -0.86979502
0.19161016 2.958348 -4.8730612 1.6699694 5.6492243 -0.71922511
0.32747304 2.8906152 -4.8813844 2.536727 5.2969503 -0.7646904
-0.063632414 3.0226438 -4.8682442 -0.19744824 6.1983871 -0.72476429
0.059784904 3.0234025 -4.870079 0.83077139 5.9937034 -0.6764062
-1.19978 -1.5902619 -4.7593732 -2.6760788 -3.4405022 2.1705222
-1.1096267 -1.6335959 -4.7501273 -1.4406471 -4.5865459 2.7976279
-0.9670372 -1.6387122 -4.7467232 0.43543586 -3.9754279 2.6822982
-0.85999972 -1.6006217 -4.7575827 1.9788268 -3.6211524 2.5580635
-1.3045993 -1.44295 -4.7666516 -6.1509018 -3.1448753 2.2126961
-1.2510002 -1.5121425 -4.7420306 -4.2386236 -3.1919506 2.1998644
-0.80554479 -1.5388035 -4.7314086 2.9356887 -3.9190202 2.9577844
-0.73436981 -1.4784602 -4.7563796 4.4200449 -3.6353173 3.066057
-1.3365796 -1.3696784 -4.7369142 -6.9155936 -3.0419822 2.3185327
-0.67044407 -1.3895061 -4.7487106 5.8329077 -3.0945544 3.102102
-0.63242137 -1.3311079 -4.7725267 6.5634885 -2.923986 2.9535925
-1.389232 -1.2303855 -4.7473078 -5.9388247 -2.1338277 1.699434
-0.61497575 -1.2238033 -4.7483826 6.5843863 -2.7494903 2.6840823
-1.4433502 -1.0798707 -4.7808661 -5.1843967 -1.5659435 1.1916066
-1.4137466 -1.1376314 -4.7277021 -4.6441116 -1.5024712 1.3322396
-0.58317769 -1.0987725 -4.7482419 6.4779568 -2.3662305 2.325762
-1.4677372 -0.97310138 -4.7454505 -3.9095588 -0.96982718 0.88802296
-0.55403638 -0.98202121 -4.747396 6.197072 -1.9545885 2.0457306
-1.5135905 -0.84797448 -4.7460709 -4.5150347 -1.0102606 0.71495372
-0.53897715 -0.86225569 -4.7097073 6.2625499 -1.8263371 1.7642365
-0.50625354 -0.84405661 -4.7795219 5.5470023 -1.2036232 1.7096291
-1.5682223 -0.70257509 -4.740262 -6.3632498 -1.2002114 0.10144867
-1.5476398 -0.76442528 -4.7841997 -5.3193583 -0.98089874 0.26074466
-0.49487185 -0.71765918 -4.7500963 5.5782928 -0.98147434 1.4714296
-1.5872642 -0.5744496 -4.7490773 -5.3577175 -0.52535689 -0.412707
-0.49926549 -0.5883733 -4.7504344 5.518734 -0.49767613 1.4202394
-1.5865886 -0.44240347 -4.7429919 -5.9029727 0.15789028 -0.88649869
-0.53010631 -0.39622191 -4.7579627 5.7470322 -0.46951559 1.137203
-0.50985074 -0.46699566 -4.7512646 5.5284352 -0.12832713 1.3706738
-1.5795008 -0.32988951 -4.7276039 -6.5184917 0.39489526 -1.1970315
-1.5560644 -0.29901499 -4.7837067 -6.2108569 0.3737995 -1.5479829
-0.54233867 -0.32542399 -4.7566261 5.7645988 -1.258945 0.71763921
-0.51034337 -0.27770698 -4.7287464 4.9061708 -2.4137239 0.13858777
-1.5750661 -0.1987078 -4.7326827 -6.4771266 0.3428055 -1.1439817
-1.5559283 -0.21067706 -4.8029785 -5.8106771 0.20989838 -1.5239887
-0.48001394 -0.19521105 -4.7456789 3.5089023 -2.8894393 -0.32059476
-0.18268304 -0.15040414 -4.732316 0.45810911 -2.8083961 -1.7034371
-0.032675188 -0.16549163 -4.7390957 -1.1522464 -3.9276614 -0.87178969
0.083249196 -0.16434586 -4.7404876 1.9913605 -5.219028 -1.2367358
-1.5714226 -0.074990988 -4.725491 -6.5885906 0.35734692 -0.9862262
-1.5563099 -0.092696205 -4.7953329 -5.9834051 0.24246335 -1.3588157
-0.41210636 -0.10963207 -4.7408986 2.2838433 -4.459363 -1.2436918
-0.31843099 -0.09695781 -4.7323289 0.67902601 -4.28968 -1.3247218
-0.18968406 -0.095574155 -4.7554779 0.66640449 -2.5771184 -1.5592959
-0.097819626 -0.11765659 -4.7440386 -0.5414747 -2.9332504 -1.4931868
0.19468121 -0.058828048 -4.7499247 4.496583 -4.4397697 -1.1645199
-1.5655311 0.051778462 -4.7298765 -6.6202025 0.35958228 -0.8831777
-1.554473 0.09926831 -4.7861061 -6.2896981 0.316695 -1.1139725
0.25984654 0.013029617 -4.7371321 5.3373618 -3.831583 -1.1484244
0.3020415 0.078593679 -4.7364049 5.49789 -3.863919 -1.2887549
-1.5633571 0.1778879 -4.7192054 -6.7899299 0.38994381 -0.70356756
-1.5533369 0.22018424 -4.7665076 -6.4910898 0.34595868 -0.89685804
0.35608679 0.16524145 -4.7493215 5.7739735 -3.9452014 -1.4509839
0.40061769 0.23223971 -4.7371683 5.8854456 -3.9465511 -1.6134831
-1.5534332 0.32685551 -4.7455773 -6.7094941 0.3812415 -0.68616951
0.46214837 0.33076012 -4.7440271 6.1407275 -3.9830806 -1.8104038
-1.5484749 0.44976696 -4.7443748 -6.7697573 0.38609684 -0.55964118
0.51436049 0.41650462 -4.7483482 6.3161335 -3.9510212 -1.9834392
0.54401666 0.46086639 -4.7265468 6.2876725 -3.8548534 -2.1129589
-1.5431674 0.58220226 -4.7460632 -6.8342457 0.39562157 -0.43682811
0.60901922 0.58671337 -4.7548895 6.4204721 -3.5269761 -2.3237007
0.65061378 0.63740325 -4.7024565 6.3703032 -3.5057735 -2.520849
-1.5371475 0.71112585 -4.7408566 -6.8677926 0.3863135 -0.29382989
0.64442956 0.65482342 -4.7672262 6.4749131 -3.335741 -2.4426818
0.68376857 0.72634685 -4.744451 6.2971711 -3.181577 -2.5362825
-1.53031 0.84386837 -4.7478805 -6.866591 0.4520731 -0.33302677
0.71752316 0.84656972 -4.7615466 5.5706468 -2.7477062 -2.3325493
-1.5089539 0.97470707 -4.7372289 -6.9014726 0.7002033 -0.39331672
0.75625318 0.97124892 -4.7607141 4.7789249 -2.3555496 -2.1516476
0.79133868 1.0055873 -4.7143383 4.9285464 -2.539294 -2.4297106
-1.4806608 1.1186641 -4.7499676 -6.9968581 1.0427719 -0.47766414
0.77971452 1.0736971 -4.8074474 4.304997 -1.9807746 -1.9786291
0.83248454 1.1117315 -4.7350407 4.7303214 -2.358326 -2.487958
-1.4556433 1.245607 -4.7490993 -7.0674648 1.338439 -0.5362345
0.87521917 1.2192417 -4.7569857 4.5111461 -2.1436632 -2.5256672
0.92285556 1.2539246 -4.7105198 4.7059326 -2.2291286 -2.7816844
-1.4354709 1.3478477 -4.7453814 -7.1195498 1.5747671 -0.57957226
-1.4243441 1.4042087 -4.7404914 -7.1472836 1.7038554 -0.59958363
0.90798908 1.3287127 -4.7954268 4.2127714 -1.8882663 -2.49648
0.97588551 1.3660243 -4.7295203 4.448 -1.9140766 -2.778244
-1.4054879 1.5001776 -4.749939 -7.2119398 1.9327357 -0.65706271
1.0094244 1.4949729 -4.7775879 4.0993104 -1.5794365 -2.7153256
1.0625095 1.4974914 -4.7135377 4.3057699 -1.4276224 -2.8124495
-1.3798826 1.6301547 -4.7361727 -7.2697182 2.2278631 -0.69999582
1.0187211 1.5753942 -4.8023796 3.9824665 -1.2694604 -2.628155
1.0751926 1.6298376 -4.7460618 4.2476363 -0.8385483 -2.672591
-1.3538761 1.7514355 -4.7410693 -7.2831073 2.4757743 -0.7723881
1.0908098 1.7569383 -4.74582 4.9641061 -0.10931548 -2.7520447
-1.3143328 1.8464253 -4.7328992 -7.0223641 2.6658134 -0.88900584
-1.2790596 1.9104691 -4.7442384 -6.7789049 2.8750322 -1.0841577
1.086368 1.887982 -4.7467756 6.0628238 0.6997329 -2.8200412
-1.2224293 2.0091264 -4.7488589 -6.403717 3.2239635 -1.4444131
1.0749533 2.0081589 -4.7402534 6.505229 1.4107337 -2.5070579
-1.1859572 2.0817907 -4.7295771 -6.1239223 3.4017487 -1.5909379
-1.1430216 2.1507702 -4.7438459 -5.8635535 3.6950259 -1.9197491
1.0210271 2.1803014 -4.7420917 5.4134536 1.9080012 -2.0316005
1.0514764 2.1115742 -4.7353144 5.6101203 1.6682104 -2.1060019
-1.0763569 2.2665722 -4.7423973 -5.3733916 4.0547924 -2.279243
-1.0324333 2.3192139 -4.7727375 -4.8938341 4.1471748 -2.3850758
0.97710627 2.2669933 -4.7551866 5.4117942 2.2722073 -2.0148594
-0.97313297 2.4042764 -4.741806 -4.0456877 3.8797834 -1.9103756
-0.8923012 2.4577417 -4.7953281 -3.91363 3.9694619 -1.8274584
0.89587051 2.4309442 -4.7455583 5.0382071 3.0990729 -1.7136824
0.93413502 2.3729882 -4.7255011 5.1810141 2.8077114 -1.814238
-0.84207213 2.5256276 -4.7405586 -3.5128374 3.9265382 -1.5129359
-0.75453728 2.5846636 -4.7471447 -3.6654963 4.2640085 -1.5212927
0.76904905 2.5887012 -4.7438726 3.7807002 3.3872685 -1.2018778
0.83085847 2.523838 -4.7411089 4.1876268 3.1817558 -1.348354
-0.68697703 2.6402872 -4.7431488 -3.8531749 4.7571063 -1.4666709
-0.61693603 2.7015388 -4.7435966 -4.0755191 5.3206148 -1.3653538
0.62581956 2.7177603 -4.7379866 3.6583338 4.343636 -1.2054216
0.70501757 2.6447713 -4.7513671 3.6879642 3.7590287 -1.1934843
-0.55348063 2.7606084 -4.7334495 -4.2464542 5.7971663 -1.2541569
-0.46470064 2.831481 -4.7537484 -4.2165933 6.3709784 -1.1384207
0.4718225 2.8322818 -4.7529063 3.4910407 5.2847385 -1.0582474
0.56374216 2.7697296 -4.7419462 3.7564838 4.8492246 -1.2271603
-0.39553568 2.8687272 -4.7569675 -3.5339985 6.4234943 -1.0708138
-0.3236104 2.9068615 -4.7433214 -2.7695997 6.3813438 -0.99057662
-0.20439477 2.9662013 -4.7501903 -1.5752853 6.2885923 -0.85961056
0.21337813 2.9617696 -4.7619781 1.742209 5.5461612 -0.70661253
0.32782006 2.9081774 -4.7456393 2.447315 5.2623811 -0.7412104
0.4121128 2.8713813 -4.743907 2.9404497 5.2630434 -0.79318219
-0.14640042 3.0017226 -4.6982169 -1.037951 6.207479 -0.78287125
-0.069201708 3.0352101 -4.74264 -0.27181169 6.1564159 -0.70549041
0.063565657 3.0370259 -4.7496843 0.79610521 5.9280152 -0.65221661
0.16089272 2.993264 -4.7180538 1.393811 5.6604948 -0.67843091
-1.0590048 -1.5819955 -4.6608672 -0.73834389 -4.6002092 3.2379889
-0.99554813 -1.5844159 -4.658217 0.090146407 -4.2943459 3.179158
-1.2307593 -1.4775596 -4.6160502 -3.3668363 -3.4086783 2.7697704
-1.1145889 -1.5248978 -4.6065836 -1.4796047 -3.889451 3.0521061
-0.9777655 -1.5269494 -4.5906053 0.37151644 -4.220973 3.398931
-0.84568304 -1.4862791 -4.6112862 2.2531054 -3.6858788 3.0753152
-0.76373053 -1.4489211 -4.6625681 3.7813594 -3.6336429 3.1732941
-1.3138287 -1.3422784 -4.6319213 -5.9152269 -3.0916371 2.6681285
-1.2830757 -1.3716023 -4.5752044 -4.6246033 -3.2033906 2.8773177
-0.78444767 -1.4008772 -4.5560989 3.3296397 -3.5256948 3.300478
-0.73452443 -1.363255 -4.6190825 4.5074158 -3.1420479 3.1909301
-1.340893 -1.2511559 -4.6090159 -6.067625 -2.698442 2.5138974
-0.67896622 -1.2415055 -4.6124926 5.7599044 -3.1945653 3.3238475
-0.64317083 -1.1989295 -4.6660604 6.3758779 -3.0217271 2.9082923
-1.3960891 -1.1006831 -4.618916 -3.7001626 -1.3239719 1.5568506
-0.66189802 -1.1151798 -4.5707521 6.0261903 -3.1487322 3.0279813
-0.62703431 -1.0966895 -4.6411347 6.6207294 -2.9359989 2.5921168
-1.4508977 -0.96418655 -4.6387734 -3.6291876 -1.0062385 1.1133049
-1.4171394 -1.0147028 -4.5921364 -4.0674543 -1.4356647 1.6193538
-0.60776436 -0.97909606 -4.6144314 6.8250666 -2.8032646 2.2450373
-1.5084137 -0.84100103 -4.6192107 -5.8084068 -1.58707 1.0504401
-0.56782049 -0.83190882 -4.6193709 6.9759011 -2.4139743 1.7284321
-1.5739776 -0.71123326 -4.6296258 -6.3069329 -1.3463322 0.4358162
-1.5458741 -0.76674688 -4.6048565 -6.2455702 -1.5228331 0.7526564
-0.54380798 -0.70866895 -4.6015172 6.9028792 -2.1340139 1.417979
-0.50815499 -0.68178117 -4.6748633 6.1554852 -1.4574664 1.3415886
-1.5880208 -0.59209692 -4.6220889 -6.5015106 -0.97860259 0.087265238
-0.52746606 -0.59353149 -4.5719566 6.9262981 -1.962889 1.1468816
-0.51430106 -0.58951259 -4.6364989 6.3947644 -1.4264671 1.2236807
-1.586904 -0.46081719 -4.6120925 -6.6766577 -0.49713793 -0.20007339
-0.53211814 -0.44758475 -4.610414 6.6485033 -1.3796116 1.0516235
-0.51630533 -0.51597703 -4.6554756 6.2306638 -0.99791276 1.2409184
-1.5847951 -0.3200776 -4.6231952 -6.6974225 0.1053963 -0.60926324
-0.53606498 -0.37307733 -4.6214738 6.4061241 -2.0751865 0.63157094
-0.50418258 -0.3079358 -4.6002665 5.2449584 -2.8295915 0.14194721
-0.0062189288 -0.26244754 -4.562531 -0.52577555 -4.6514888 -2.8735123
0.032317281 -0.27254975 -4.56745 0.11030868 -4.8157053 -2.7084503
-1.5797164 -0.19324937 -4.6176848 -6.7173729 0.25263527 -0.59829086
-0.46590424 -0.19623397 -4.6254606 3.382956 -3.3386543 -0.42797127
-0.19134288 -0.18553057 -4.6083665 -0.45731691 -3.2880113 -1.6655232
-0.0729018 -0.19791269 -4.6077299 -0.73807454 -3.5939729 -2.5522714
0.067744799 -0.20571418 -4.6283264 1.4263124 -4.7782531 -2.120784
0.15681326 -0.15504076 -4.5924454 3.5889852 -4.01057 -1.8076967
-1.5725425 -0.052976336 -4.6011152 -6.7397342 0.22412859 -0.39291036
-0.42076358 -0.12070023 -4.6038322 2.2452085 -4.3408918 -1.0668728
-0.3278068 -0.1138758 -4.5952849 0.36334687 -4.2699137 -1.1382335
-0.25475493 -0.11425884 -4.6446218 -0.12000689 -3.4997244 -1.2187465
0.22344796 -0.059115164 -4.6204925 4.4832692 -3.7182257 -1.2991781
0.26440573 -0.019673688 -4.5738811 4.6526794 -3.5757282 -1.2981626
-1.5662926 0.078405544 -4.6131215 -6.7632389 0.23420106 -0.32045662
0.30615497 0.054341603 -4.5996032 4.8686209 -3.5831127 -1.441909
-1.5615784 0.17680614 -4.6203122 -6.7806778 0.23899479 -0.25805894
-1.5580049 0.23450455 -4.5808458 -6.7868986 0.17509851 -0.024220869
0.36997101 0.1565598 -4.6068506 5.1366405 -3.6189089 -1.6549189
0.41240236 0.22275496 -4.6030383 5.2721796 -3.6205673 -1.8066403
-1.5543149 0.32200763 -4.6143494 -6.8048921 0.22075923 -0.091145433
0.47078645 0.31864831 -4.6217809 5.5785384 -3.6871464 -1.9865177
0.52607042 0.3866564 -4.5517721 5.4919233 -3.6480706 -2.2219162
-1.5474977 0.45878381 -4.6100922 -6.8278255 0.20565753 0.059945099
0.56158465 0.45970026 -4.6171098 5.9014382 -3.7332935 -2.2968411
-1.5418011 0.5809347 -4.6212816 -6.8431277 0.22083506 0.10723713
0.62415689 0.56205523 -4.6274633 6.157402 -3.7435374 -2.4955833
0.66754454 0.62703699 -4.6047063 6.1854992 -3.6697738 -2.6707199
-1.5366403 0.70973772 -4.6011863 -6.7734771 0.26110402 0.048903432
0.70839733 0.70920914 -4.6138897 6.1547894 -3.4951375 -2.7625363
-1.5297333 0.85033119 -4.6117086 -6.713274 0.37545097 -0.15307082
0.75549781 0.83291918 -4.6222553 5.6475096 -3.1478121 -2.7011545
0.8079263 0.87598562 -4.5760031 5.7687092 -3.1660223 -2.920131
-1.5070094 0.98106521 -4.6146445 -6.7682462 0.65006214 -0.23617159
0.77428842 0.9297092 -4.6735859 5.2316232 -2.8124919 -2.5468791
0.83913338 0.97555387 -4.6122003 5.4735699 -2.8930259 -2.866055
0.91821551 1.030877 -4.5610719 5.5277348 -2.6627586 -2.9926434
-1.4826832 1.1043586 -4.6088448 -6.8312912 0.9346016 -0.28658369
0.87751353 1.0928502 -4.6491542 5.1700873 -2.6215529 -2.8481343
0.94379431 1.1184881 -4.5934343 5.2780952 -2.447583 -2.9583747
-1.4553641 1.243214 -4.6161075 -6.9176898 1.2623674 -0.36137894
0.98983145 1.2357733 -4.6236796 4.9802237 -2.1372573 -2.9366252
1.0583168 1.2623134 -4.5661397 5.0916381 -1.957406 -3.0504835
-1.4375379 1.3334851 -4.6091213 -6.9607906 1.4692454 -0.39470974
-1.4229453 1.4078617 -4.6201811 -7.0150704 1.6486099 -0.44413823
1.0198529 1.3359102 -4.6597962 4.6973128 -1.8898336 -2.8990643
1.0980229 1.3772324 -4.6017642 4.7831407 -1.6635405 -3.0181229
-1.4043446 1.5027064 -4.6127248 -7.0600038 1.8646891 -0.4786697
1.1275314 1.4947559 -4.6309276 4.5814028 -1.251927 -2.9370053
1.1832719 1.5353817 -4.5703382 4.8044038 -0.88753921 -2.9760127
-1.3830696 1.6243154 -4.6117597 -7.1228461 2.122514 -0.527605
1.1520808 1.6320235 -4.6283989 5.0992832 -0.48276478 -2.9409623
1.1876662 1.6197908 -4.5595732 5.6952319 -0.32675469 -3.0941067
-1.3539736 1.7640549 -4.6048775 -7.1130042 2.3627551 -0.6000495
1.1465248 1.7623541 -4.627171 6.0519176 0.32268819 -2.8938305
1.177781 1.7415961 -4.5556927 6.3567524 0.43008476 -2.8501763
-1.3157403 1.8640751 -4.6075478 -6.9367714 2.5253243 -0.71218336
-1.2896891 1.92045 -4.6187077 -6.7261348 2.6434588 -0.76795572
1.1388716 1.8965575 -4.6113057 6.744945 1.1851239 -2.552367
-1.2486759 2.0085461 -4.619379 -6.3875647 2.823925 -0.86022204
1.1136445 2.0232286 -4.6127725 6.2274275 1.6503782 -2.1288238
-1.1962869 2.1153777 -4.6084561 -5.9770541 3.0747027 -1.0400749
-1.1549206 2.1844466 -4.6220565 -5.7157373 3.34603 -1.3303314
1.0689963 2.1433632 -4.6316543 5.1995792 1.8910277 -1.8009808
-1.1037289 2.2740114 -4.6223769 -5.3706336 3.6542606 -1.6474921
1.0089135 2.2851779 -4.6222034 5.0006256 2.4776008 -1.6727749
1.0532447 2.230072 -4.557889 4.8172789 2.3070276 -1.5328262
-1.054841 2.3610559 -4.602829 -4.8392334 3.7381876 -1.6646197
-1.0001115 2.4243293 -4.6226921 -3.9933593 3.5948706 -1.4589666
0.90796441 2.4686232 -4.648725 4.6486917 3.2127044 -1.4561132
0.95320886 2.4110887 -4.6111703 4.8755698 3.0462973 -1.5521122
-0.94126874 2.4981887 -4.6041331 -3.2382095 3.4908493 -1.2794981
-0.84835929 2.5613654 -4.6134152 -3.2055769 3.9771314 -1.3669009
0.77459037 2.5974412 -4.6586194 4.1064925 3.8212414 -1.285973
0.8559112 2.5313604 -4.6159244 4.3609252 3.5364223 -1.3358902
-0.71817303 2.6486795 -4.6223812 -3.5163264 4.6274023 -1.4050368
-0.63278651 2.7160635 -4.6368866 -3.8090961 5.2907429 -1.3280039
0.63234138 2.7219272 -4.6757383 3.89871 4.6445332 -1.266863
0.70600456 2.6686733 -4.613698 4.1593695 4.4712801 -1.3204999
0.7819714 2.6003237 -4.5995817 4.3356781 4.0989084 -1.3442646
