# .PCD v0.7 - Point Cloud Data file format
VERSION 0.7
FIELDS x y z nx ny nz rgb
SIZE 4 4 4 4 4 4 4
TYPE F F F F F F F
COUNT 1 1 1 1 1 1 1
WIDTH 908
HEIGHT 1
VIEWPOINT 0 0 0 1 0 0 0
POINTS 908
DATA ascii
-5.709466 0.78021091 3.2084188 0 0 0 5.509771e-039
-6.0281401 0.35490495 3.5214226 0 0 0 9.1773839e-041
-6.3945174 0.012801064 3.2331424 0 0 0 2.3427379e-038
-5.9460959 0.12130955 4.6709199 0 0 0 2.3468992e-038
-5.0478287 0.31565225 2.998816 0 0 0 2.3503789e-038
-6.2567196 0.1805612 3.8732512 0 0 0 1.3132117e-038
-6.4024463 0.11743383 3.0118256 0 0 0 2.350343e-038
-5.4847269 0.10071502 3.9644918 0 0 0 2.3339848e-038
-6.097672 0.24283367 2.9432945 0 0 0 2.3492668e-038
-5.3554602 0.22960408 3.5013113 0 0 0 2.1489147e-038
-5.282403 0.0057601994 3.1408291 0 0 0 2.3421998e-038
-6.3678312 0.67192829 2.9849291 0 0 0 1.9927585e-038
-6.1545334 0.62070024 3.9047201 0 0 0 9.155944e-041
-5.2969208 0.69622463 2.9621539 0 0 0 2.3506658e-038
-6.7320046 0.47400048 2.954344 0 0 0 2.350056e-038
-6.0404654 0.77302396 3.4502659 0 0 0 4.2240741e-039
-6.6522021 0.42955267 3.5803418 0 0 0 2.342415e-038
-6.4628196 0.33374518 3.7308626 0 0 0 2.3489081e-038
-6.4856496 0.063905247 3.6042318 0 0 0 2.3464687e-038
-5.0467429 0.086479105 2.980201 0 0 0 2.348083e-038
-5.5981636 0.87571704 4.1617579 0 0 0 2.3340565e-038
-5.9998913 0.14374331 4.5513701 0 0 0 2.34837e-038
-6.6176596 0.26992545 3.0536125 0 0 0 6.5199615e-039
-5.1910129 0.3745881 3.3620908 0 0 0 2.3463252e-038
-6.5169969 0.37745345 3.676228 0 0 0 2.3474731e-038
-6.5076041 0.51156759 3.1985788 0 0 0 9.168836e-041
-6.8900824 0.90706897 3.1542487 0 0 0 2.3428455e-038
-5.7529173 0.33760989 3.9856811 0 0 0 6.4248974e-040
-6.6663222 0.97369152 3.4660587 0 0 0 2.3437064e-038
-5.8058004 0.58163291 3.5870743 0 0 0 5.8113249e-041
-5.4778132 0.92042029 3.2763541 0 0 0 2.3475807e-038
-5.3184466 0.030397195 3.1494617 0 0 0 2.3439934e-038
-6.2834496 0.010250524 3.7265732 0 0 0 2.3425226e-038
-5.0229726 0.22729175 2.8990991 0 0 0 2.3460382e-038
-6.6606722 0.92176586 3.1338284 0 0 0 2.347509e-038
-6.416213 0.51031339 3.7692511 0 0 0 2.3504865e-038
-6.1300311 0.9590475 3.0864277 0 0 0 2.3447826e-038
-5.8956156 0.15502219 2.9408846 0 0 0 2.3490874e-038
-5.6690502 0.95613158 4.2013483 0 0 0 2.3449979e-038
-6.6000309 0.039475095 2.878442 0 0 0 2.3445315e-038
-5.7330012 0.88985944 3.1406174 0 0 0 2.3498408e-038
-6.0731158 0.53116941 3.0441947 0 0 0 8.2648359e-039
-5.6588898 0.18181933 3.6493719 0 0 0 1.2948446e-038
-6.2353783 0.66966099 3.087528 0 0 0 9.1478165e-041
-6.5964556 0.30922487 3.4922204 0 0 0 2.3491592e-038
-5.428894 0.084391408 3.7767978 0 0 0 2.3464328e-038
-5.4039083 0.83353591 3.8172534 0 0 0 2.3433836e-038
-5.6658301 0.78371257 3.1631637 0 0 0 6.1526195e-039
-6.3663535 0.31272331 4.0540934 0 0 0 2.3340924e-038
-6.4865513 0.72912031 3.8537366 0 0 0 2.3429531e-038
-5.2598591 0.34525889 3.2285554 0 0 0 1.0744394e-038
-5.9335475 0.55612868 2.9658499 0 0 0 2.350917e-038
-5.4099364 0.23750153 3.7918618 0 0 0 2.344675e-038
-5.4290295 0.09846624 3.7479801 0 0 0 2.3474731e-038
-5.9213095 0.67779446 3.5405862 0 0 0 9.168836e-041
-5.5833359 0.042557348 3.3269572 0 0 0 2.3448903e-038
-6.5790844 0.83955586 3.1001704 0 0 0 1.6897373e-038
-6.2461963 0.48318061 2.8997424 0 0 0 2.3460741e-038
-6.4239602 0.78437895 3.3861966 0 0 0 5.7852775e-039
-6.6575379 0.26740366 3.2056623 0 0 0 1.1203572e-038
-6.1718807 0.041803714 4.3433247 0 0 0 2.3448544e-038
-5.9685807 0.42275351 3.1279492 0 0 0 9.1584664e-041
-5.2055984 0.33525026 2.8486629 0 0 0 2.3423791e-038
-5.6688333 0.45301467 3.3829615 0 0 0 3.443691e-041
-6.8418589 0.053301901 2.8462873 0 0 0 2.3421998e-038
-5.9259062 0.83997965 2.9547915 0 0 0 2.3500919e-038
-5.6559615 0.064470932 3.3769519 0 0 0 2.3465045e-038
-5.484796 0.61040354 2.9362442 0 0 0 2.3487646e-038
-6.5323215 0.98866159 2.9467382 0 0 0 2.3426302e-038
-5.5426922 0.72526503 3.6668065 0 0 0 5.509771e-039
-6.6162076 0.60778821 3.2857296 0 0 0 1.2030091e-038
-6.5997906 0.60850126 3.0822172 0 0 0 1.1016672e-039
-5.8534698 0.24666965 3.775708 0 0 0 7.3432524e-040
-5.0552325 0.55247355 3.1355863 0 0 0 2.3458947e-038
-6.8146229 0.70632112 3.1005065 0 0 0 2.3495896e-038
-6.1227007 0.70904076 3.2628894 0 0 0 9.159167e-041
-5.6010213 0.84926319 3.1396868 0 0 0 1.8734082e-038
-6.3005519 0.46961761 3.8320451 0 0 0 1.1754585e-038
-5.5931687 0.97915679 3.9234304 0 0 0 2.3433118e-038
-5.9236846 0.72486746 3.1544008 0 0 0 9.1549631e-041
-6.1587925 0.80296451 3.9387782 0 0 0 9.4586974e-039
-5.7847085 0.50659657 4.131711 0 0 0 9.9178749e-039
-5.8339834 0.93070394 3.0211494 0 0 0 2.3468274e-038
-5.8322711 0.35138342 3.436934 0 0 0 9.1765431e-041
-6.6345997 0.88000757 3.364141 0 0 0 2.3505582e-038
-5.8347311 0.44186172 3.4779015 0 0 0 4.2687755e-041
-5.5036354 0.89933568 3.134347 0 0 0 2.3491233e-038
-6.6294942 0.78484124 3.0831816 0 0 0 6.611797e-039
-5.3965878 0.10493061 3.3947978 0 0 0 2.3494462e-038
-5.8650136 0.26689604 4.4655747 0 0 0 2.349195e-038
-6.801434 0.31486639 3.0698256 0 0 0 2.1948325e-038
-5.8491101 0.040678978 3.5818014 0 0 0 2.3447468e-038
-6.7354069 0.31181586 3.0271001 0 0 0 1.1111736e-038
-5.8319092 0.55651104 4.3212962 0 0 0 1.9927944e-038
-6.6967993 0.86973828 2.9351046 0 0 0 2.3486569e-038
-5.1868916 0.50289094 3.1211207 0 0 0 1.368313e-038
-5.9037161 0.98267907 3.8226633 0 0 0 2.3430607e-038
-5.4818778 0.28739586 2.9312212 0 0 0 2.3484058e-038
-6.287591 0.31764808 3.5544786 0 0 0 9.1674347e-041
-6.2875538 0.5895012 3.7538524 0 0 0 1.8363512e-039
-5.8014002 0.21342307 4.0514097 0 0 0 6.8873035e-039
-5.7757816 0.57726443 4.2886386 0 0 0 2.3499125e-038
-6.3653808 0.49131382 3.8081157 0 0 0 2.0019779e-038
-6.041059 0.61016864 3.7458842 0 0 0 8.1072123e-041
-5.8553143 0.24846239 3.4747834 0 0 0 9.1482369e-041
-6.2874866 0.67021704 3.939774 0 0 0 1.9652437e-038
-6.4506702 0.68991143 3.2112029 0 0 0 9.1649123e-041
-5.6603508 0.15515012 4.1125503 0 0 0 2.3489798e-038
-5.269093 0.43230075 3.3099203 0 0 0 1.7815728e-038
-5.5367994 0.93257529 3.2023909 0 0 0 2.3467198e-038
-5.4353318 0.91210777 3.3145993 0 0 0 2.3481906e-038
-5.7151837 0.4804112 4.1366158 0 0 0 2.1856489e-038
-5.0644073 0.019441588 2.8898752 0 0 0 2.3432042e-038
-6.6196785 0.28738931 3.1799779 0 0 0 2.4791997e-039
-6.0705137 0.34461311 4.0638103 0 0 0 9.1542625e-041
-5.7500834 0.50790983 4.0719662 0 0 0 9.0913554e-039
-5.9450736 0.52367926 3.22472 0 0 0 8.2865785e-041
-6.2074089 0.1369852 4.0814466 0 0 0 2.1305476e-038
-5.9513359 0.17879137 3.1372385 0 0 0 1.3499459e-038
-6.30299 0.1040401 3.1870553 0 0 0 2.3493744e-038
-6.7008452 0.38984188 2.9360175 0 0 0 2.3487287e-038
-6.3775034 0.44258127 3.8111339 0 0 0 2.2315667e-038
-6.1955347 0.80817699 4.1020064 0 0 0 1.9836108e-038
-5.8487072 0.92206413 4.5213537 0 0 0 2.3461458e-038
-5.9304976 0.074946344 3.6401896 0 0 0 2.3472579e-038
-6.5100727 0.59971219 3.3762503 0 0 0 3.1220481e-039
-5.4701476 0.56553042 3.9368181 0 0 0 2.3432401e-038
-5.3917241 0.057235509 3.1709986 0 0 0 2.3459664e-038
-6.5076394 0.23058499 3.1596897 0 0 0 3.7648966e-039
-6.8070683 0.055638067 3.0450137 0 0 0 2.3458588e-038
-5.9788175 0.095190018 4.2448139 0 0 0 2.3487287e-038
-5.8181071 0.96716827 3.2812634 0 0 0 2.3441728e-038
-5.525002 0.73720866 2.8480186 0 0 0 2.3423074e-038
-6.0760093 0.54741472 4.4602141 0 0 0 2.3468633e-038
-5.7697167 0.78430521 3.1977224 0 0 0 6.1526195e-039
-6.1919417 0.73192024 3.4524596 0 0 0 9.152721e-041
-6.0108829 0.7833727 3.5486495 0 0 0 6.428126e-039
-5.7759852 0.22582161 3.3521461 0 0 0 4.2240741e-039
-5.3154583 0.86083955 3.1701803 0 0 0 2.0846299e-038
-5.1840858 0.77215743 3.2533119 0 0 0 2.3498049e-038
-5.718883 0.82972914 4.1982822 0 0 0 2.3495896e-038
-5.6721282 0.82936954 3.0526929 0 0 0 1.4968827e-038
-5.8171749 0.52283275 3.8055353 0 0 0 8.2865785e-041
-5.8303227 0.95899123 4.2424936 0 0 0 2.3447826e-038
-5.9990473 0.88953578 3.7715299 0 0 0 2.3498408e-038
-5.2521443 0.95868915 3.3090975 0 0 0 2.3448185e-038
-5.1122847 0.3104969 2.9368968 0 0 0 2.3488004e-038
-5.3097491 0.27090934 3.4847789 0 0 0 2.3494103e-038
-5.688849 0.27657494 3.0423944 0 0 0 8.8158489e-039
-5.7768354 0.92586583 3.9432998 0 0 0 2.3471861e-038
-6.2658472 0.4738512 3.0237291 0 0 0 1.267294e-038
-5.3764596 0.61136079 3.4409544 0 0 0 1.2489269e-038
-5.6482487 0.77991307 3.7885296 0 0 0 5.6016065e-039
-5.4650283 0.021312207 3.4904335 0 0 0 2.3433477e-038
-5.7149754 0.77252728 3.042886 0 0 0 8.9076844e-039
-5.6291461 0.55830991 3.9192994 0 0 0 1.5703511e-038
-5.7893147 0.61399829 3.843482 0 0 0 9.174301e-041
-6.4188485 0.80108988 3.6027949 0 0 0 9.3668619e-039
-6.191246 0.1175141 4.1252789 0 0 0 2.3503789e-038
-5.6740122 0.32277337 3.775655 0 0 0 9.1555236e-041
-6.1670828 0.93151361 3.6861687 0 0 0 2.3467915e-038
-5.979969 0.93481326 3.3314297 0 0 0 2.3465404e-038
-5.3178802 0.39582825 3.3259857 0 0 0 1.1203572e-038
-6.4394188 0.96885329 3.1374719 0 0 0 2.3440652e-038
-6.1554432 0.1400926 4.3245473 0 0 0 2.3467915e-038
-5.215322 0.74258 3.4832611 0 0 0 2.3434912e-038
-6.3530531 0.29205772 3.9452775 0 0 0 2.348083e-038
-6.7365284 0.45759362 3.447552 0 0 0 2.3419128e-038
-6.3250155 0.46256801 4.0207405 0 0 0 2.3471144e-038
-5.8011785 0.26293987 3.0739858 0 0 0 2.5710352e-039
-5.9268918 0.80835712 3.546819 0 0 0 1.0468888e-038
-6.0907874 0.1924914 2.9002995 0 0 0 2.3461458e-038
-5.5240889 0.77877992 3.2674236 0 0 0 5.1424291e-039
-5.7821569 0.40689641 3.6648488 0 0 0 6.7440291e-041
-5.1124945 0.40874711 3.1091645 0 0 0 2.3504865e-038
-5.6599569 0.8985579 2.9679954 0 0 0 2.349195e-038
-5.9662113 0.29823205 4.6276283 0 0 0 2.3477242e-038
-5.8044143 0.3282173 4.4640293 0 0 0 2.3453925e-038
-5.1460776 0.94005275 2.9254222 0 0 0 2.3461458e-038
-6.9352727 0.67251056 2.9108829 0 0 0 2.3468992e-038
-5.6528597 0.73586971 3.6866221 0 0 0 9.1521605e-041
-6.2315059 0.54989254 4.3140993 0 0 0 2.3423433e-038
-5.9638624 0.26735225 3.2478118 0 0 0 9.1525809e-041
-5.8227816 0.51214767 2.9186525 0 0 0 2.3474731e-038
-6.4771667 0.17914504 2.9903655 0 0 0 1.8917753e-038
-5.9999495 0.27518725 4.5008483 0 0 0 2.3501995e-038
-5.6990833 0.88518822 3.0971317 0 0 0 2.3501636e-038
-5.9844809 0.15241309 3.789295 0 0 0 1.836674e-038
-6.1799521 0.097774409 3.0756016 0 0 0 2.3489081e-038
-5.8787656 0.36143813 3.3850734 0 0 0 9.1797661e-041
-5.8291478 0.4713068 4.5707927 0 0 0 2.3430966e-038
-6.03475 0.27717373 3.250828 0 0 0 9.1555236e-041
-6.2794437 0.2605218 3.2833741 0 0 0 9.150479e-041
-5.412312 0.85264963 3.2986028 0 0 0 1.9376931e-038
-6.3702726 0.92254573 3.296901 0 0 0 2.3474373e-038
-6.1362233 0.88842285 4.4171033 0 0 0 2.3446391e-038
-6.7427325 0.20128669 3.0880952 0 0 0 1.4142308e-038
-6.6725736 0.78151524 2.8630941 0 0 0 2.3434194e-038
-5.7408323 0.14252566 3.8992269 0 0 0 2.020345e-038
-5.7119884 0.28099331 3.80211 0 0 0 9.1565046e-041
-5.7267661 0.91887897 3.9019876 0 0 0 2.3477242e-038
-5.9679065 0.79045475 4.5589666 0 0 0 2.3501277e-038
-5.432508 0.98353434 3.7920341 0 0 0 2.342989e-038
-6.0777416 0.2623215 3.2362368 0 0 0 9.1520204e-041
-6.1331425 0.21582448 3.1252494 0 0 0 6.428126e-039
-5.5230174 0.96486837 4.001862 0 0 0 2.3442445e-038
-5.0521998 0.57784098 3.1823814 0 0 0 2.3439934e-038
-5.8757639 0.047307756 3.8100886 0 0 0 2.345249e-038
-6.3237734 0.9851802 3.2832439 0 0 0 2.3428813e-038
-5.0978208 0.96754014 3.2865372 0 0 0 2.3431325e-038
-6.0051208 0.28931329 2.9826934 0 0 0 2.0387121e-038
-5.6247525 0.28231171 2.899718 0 0 0 2.3460741e-038
-4.8834982 0.71721101 2.9000101 0 0 0 2.3435271e-038
-5.7941899 0.79231524 4.2265897 0 0 0 1.735655e-038
-6.1004348 0.64459771 4.2719555 0 0 0 2.0294927e-038
-6.3608274 0.39061904 4.041101 0 0 0 2.344101e-038
-6.5191951 0.054688834 2.9804931 0 0 0 2.3457871e-038
-5.5301013 0.3143571 3.4943726 0 0 0 9.1237142e-041
-5.7553167 0.12273481 3.1934526 0 0 0 2.3507376e-038
-5.6746807 0.11513956 3.7893062 0 0 0 2.3501995e-038
-6.3603997 0.82700282 3.7582684 0 0 0 1.4601485e-038
-5.4300423 0.45278183 3.2884464 0 0 0 9.1639314e-041
-5.5494027 0.2047545 3.3905101 0 0 0 8.1730004e-039
-5.8141422 0.0034663982 4.3739052 0 0 0 2.3420563e-038
-5.4306664 0.39544666 3.3361473 0 0 0 9.1570651e-041
-6.6885104 0.85348451 3.3333821 0 0 0 2.3490874e-038
-5.2579761 0.88296485 3.4259145 0 0 0 2.3482623e-038
-6.4209304 0.40010947 3.573833 0 0 0 6.7036325e-039
-5.5996799 0.21285194 3.0485108 0 0 0 7.9893294e-039
-6.2092304 0.88966489 4.1630378 0 0 0 2.3492668e-038
-6.0279465 0.95743245 3.7890084 0 0 0 2.3357067e-038
-5.0980182 0.40149206 2.9882581 0 0 0 1.9285095e-038
-6.514307 0.31260142 3.767153 0 0 0 2.3443522e-038
-5.6406984 0.17364128 3.3090789 0 0 0 1.4417814e-038
-5.4788003 0.92363733 3.936553 0 0 0 2.3346305e-038
-5.6952667 0.94951534 3.9714675 0 0 0 2.3454642e-038
-6.2394018 0.51514006 2.8771627 0 0 0 2.3444239e-038
-6.0119758 0.51647079 3.9958682 0 0 0 9.1780846e-041
-6.8431911 0.50627637 3.0990229 0 0 0 2.3478319e-038
-5.5495977 0.7533921 2.9011979 0 0 0 2.3461817e-038
-5.6683254 0.25140512 3.8439565 0 0 0 2.2036932e-039
-6.5390997 0.10013186 3.5917244 0 0 0 2.3490874e-038
-5.8003168 0.43927532 2.9464972 0 0 0 2.3495179e-038
-5.4441028 0.34166408 3.7047791 0 0 0 2.3499843e-038
-6.0786061 0.69143409 3.9597549 0 0 0 9.1651926e-041
-5.5564542 0.54699594 3.8054049 0 0 0 1.6989208e-038
-6.1062222 0.81590307 3.9079638 0 0 0 1.2489269e-038
-6.1854167 0.56784898 4.3793144 0 0 0 2.3428813e-038
-5.7829189 0.79258966 2.8748116 0 0 0 2.3442804e-038
-5.4509158 0.50801539 3.8759925 0 0 0 2.3442445e-038
-6.0670567 0.10907336 4.1157994 0 0 0 2.3497331e-038
-5.2441931 0.61513293 3.2886732 0 0 0 1.9836108e-038
-5.8332205 0.2145969 3.6090612 0 0 0 6.428126e-039
-5.8616395 0.65076727 4.6025934 0 0 0 2.3440293e-038
-5.7478862 0.98000884 3.0189383 0 0 0 2.3432401e-038
-6.7629409 0.51431513 3.3519907 0 0 0 2.3437064e-038
-5.7836604 0.10194144 4.3642054 0 0 0 2.3476884e-038
-5.973937 0.087245844 3.1699162 0 0 0 2.3481547e-038
-5.743041 0.7158553 3.047338 0 0 0 7.9893294e-039
-5.7395029 0.92245322 3.4237692 0 0 0 2.3474373e-038
-6.0017743 0.13516323 3.438343 0 0 0 2.1580983e-038
-6.0008721 0.097076066 3.5765884 0 0 0 2.3488722e-038
-5.3616414 0.67635751 2.8428192 0 0 0 2.3327651e-038
-6.0433331 0.9186514 4.3701162 0 0 0 2.3477242e-038
-5.0383534 0.99280727 2.8409595 0 0 0 2.3326216e-038
-5.6270618 0.97441393 3.5244787 0 0 0 2.3436706e-038
-5.7583275 0.69137317 3.3274612 0 0 0 9.1647722e-041
-6.0074401 0.35147303 3.6251431 0 0 0 9.1772438e-041
-6.6807528 0.81471324 3.3389142 0 0 0 2.3493744e-038
-6.1321721 0.21776679 3.2565877 0 0 0 6.060784e-039
-5.8904228 0.29066619 4.2194858 0 0 0 3.6698325e-040
-5.3677549 0.97751361 3.1407893 0 0 0 2.3434194e-038
-6.5658364 0.45491773 3.1759722 0 0 0 9.1577657e-041
-5.9926329 0.85574561 3.6586149 0 0 0 1.9927944e-038
-5.1162815 0.51989353 2.8601332 0 0 0 2.3432042e-038
-6.1521254 0.58508414 3.4259088 0 0 0 6.1700573e-041
-5.9322858 0.70077878 3.9779186 0 0 0 9.1621097e-041
-5.9532509 0.82291704 3.3977768 0 0 0 1.3774966e-038
-6.47293 0.15987472 3.350563 0 0 0 1.6989208e-038
-6.4695115 0.22615688 3.4605346 0 0 0 4.3159096e-039
-6.8562703 0.86686277 2.9241767 0 0 0 2.3478677e-038
-5.5763364 0.73699427 3.7716417 0 0 0 1.000971e-038
-6.358943 0.10692823 3.7115002 0 0 0 2.3495896e-038
-6.2489595 0.18295982 4.1084862 0 0 0 2.3487287e-038
-6.1042147 0.81632769 4.182714 0 0 0 1.2581104e-038
-5.9644089 0.38020387 3.2133396 0 0 0 9.1827088e-041
-6.4308662 0.63397616 3.5875912 0 0 0 8.9076844e-039
-5.1979308 0.57602239 3.2874327 0 0 0 2.3494462e-038
-5.7096419 0.17336375 3.6474812 0 0 0 1.450965e-038
-5.8402762 0.2460494 3.2833703 0 0 0 3.6698325e-040
-6.9380064 0.19282126 2.9726472 0 0 0 2.3464328e-038
-5.8710523 0.69616896 4.4176841 0 0 0 2.2499338e-038
-5.4296656 0.70641869 3.6540546 0 0 0 2.350917e-038
-6.2026939 0.48294216 4.0742092 0 0 0 1.8458576e-038
-6.1274929 0.11714476 3.0431046 0 0 0 2.350343e-038
-5.1219521 0.91698712 3.3207741 0 0 0 2.3434194e-038
-5.9691272 0.60201138 4.4468937 0 0 0 1.5336169e-038
-5.2971749 0.20351917 3.0961602 0 0 0 8.5403424e-039
-6.03578 0.77021158 4.5907297 0 0 0 2.344675e-038
-5.5275912 0.51240385 3.2106223 0 0 0 9.1817279e-041
-5.0785365 0.26481336 3.2202504 0 0 0 2.3443163e-038
-6.6321635 0.21923614 3.5581012 0 0 0 2.3444956e-038
-5.0876074 0.80150878 2.9894423 0 0 0 1.9101424e-038
-5.457551 0.99317664 3.4693792 0 0 0 2.3422715e-038
-5.8667793 0.20178279 3.3649161 0 0 0 8.3566714e-039
-6.290659 0.74129164 3.3890686 0 0 0 9.1500586e-041
-5.6007099 0.91053128 4.027411 0 0 0 2.3482623e-038
-6.224896 0.31607577 3.550977 0 0 0 9.1664538e-041
-5.568912 0.91312963 3.9280152 0 0 0 2.3481188e-038
-5.7937727 0.95759857 3.0914409 0 0 0 2.3448903e-038
-6.0754642 0.23222415 4.0807524 0 0 0 3.1220481e-039
-6.3145342 0.85624951 3.7297809 0 0 0 2.0019779e-038
-6.2481647 0.32566792 3.1120925 0 0 0 9.153702e-041
-6.0689626 0.4494074 3.6946132 0 0 0 3.7306769e-041
-6.2535133 0.9080404 3.4870188 0 0 0 2.3485134e-038
-5.8606396 0.02098399 2.954175 0 0 0 2.3433118e-038
-5.9282389 0.35470542 3.1223903 0 0 0 9.1569249e-041
-5.0930357 0.73722571 2.9148972 0 0 0 2.3471861e-038
-6.3339624 0.94602728 2.903259 0 0 0 2.3457153e-038
-5.9585547 0.22093706 4.2020621 0 0 0 5.509771e-039
-5.3484044 0.33897156 3.5132372 0 0 0 2.3508452e-038
-5.8251534 0.71640879 3.8197684 0 0 0 9.121332e-041
-5.3841305 0.53815955 3.5065937 0 0 0 1.7264356e-038
-6.1867428 0.6991781 4.1911101 0 0 0 2.3496614e-038
-6.2481899 0.61370218 3.4766235 0 0 0 8.3223116e-041
-5.4389715 0.44126126 3.514081 0 0 0 8.8158489e-039
-5.5148568 0.88943809 2.9830196 0 0 0 2.3498408e-038
-6.087728 0.21651228 4.3717813 0 0 0 2.3493385e-038
-6.0537553 0.22777496 3.377208 0 0 0 4.1322386e-039
-6.0230346 0.58511567 4.119092 0 0 0 9.1579059e-041
-6.0057788 0.15367088 3.2832246 0 0 0 1.818307e-038
-5.8697557 0.13332993 4.2693071 0 0 0 2.1948325e-038
-6.7369108 0.26602009 3.2344739 0 0 0 2.3496255e-038
-5.4772873 0.41620421 3.9033012 0 0 0 2.3449261e-038
-6.1486144 0.57170182 4.1621947 0 0 0 1.7907563e-038
-6.6447492 0.32022387 3.2755129 0 0 0 1.5703511e-038
-5.0735197 0.89436871 3.2718482 0 0 0 2.342128e-038
-5.9681172 0.83941126 3.1231222 0 0 0 1.6897373e-038
-6.4380598 0.52444029 3.2042434 0 0 0 9.1806069e-041
-5.2577462 0.98792279 3.1380417 0 0 0 2.3426661e-038
-5.4342084 0.46342397 3.0050476 0 0 0 1.616233e-038
-5.3071136 0.64104331 3.5759652 0 0 0 2.3459664e-038
-6.0665951 0.17812699 2.9115415 0 0 0 2.346935e-038
-5.3507557 0.76815164 2.9632487 0 0 0 2.3507376e-038
-5.8338461 0.61748224 3.6935565 0 0 0 8.6094376e-041
-5.724637 0.62958837 4.3127713 0 0 0 2.345823e-038
-6.0126147 0.73762488 3.1185591 0 0 0 9.1521605e-041
-6.3509078 0.72385961 3.6231203 0 0 0 3.6698325e-040
-5.4985023 0.73821408 3.5103943 0 0 0 9.1494981e-041
-5.1719599 0.50110602 3.0831802 0 0 0 1.2581104e-038
-5.9415135 0.69964701 4.7509971 0 0 0 2.3437064e-038
-5.7006454 0.30979684 4.3216009 0 0 0 2.3439575e-038
-5.7468433 0.31771266 2.8780129 0 0 0 2.3444956e-038
-5.6973629 0.94989991 3.9608333 0 0 0 2.3454283e-038
-5.613029 0.80239892 2.85956 0 0 0 2.3431683e-038
-6.122519 0.93280423 3.3554935 0 0 0 2.3466839e-038
-5.1401963 0.065845065 3.1797154 0 0 0 2.3465763e-038
-5.7719851 0.78933322 3.596205 0 0 0 6.244455e-039
-5.9489002 0.73880208 4.4568453 0 0 0 1.3499459e-038
-6.071311 0.010056168 4.3222876 0 0 0 2.3425226e-038
-5.8891644 0.70519829 3.2756126 0 0 0 9.1608486e-041
-6.8064318 0.48166737 2.8790948 0 0 0 2.3445674e-038
-5.9535451 0.36363167 3.4876213 0 0 0 9.1799062e-041
-5.7341218 0.34981781 3.7433751 0 0 0 9.1750017e-041
-5.689971 0.82692784 3.1319296 0 0 0 1.450965e-038
-6.2091012 0.42477208 3.9436858 0 0 0 6.979139e-039
-5.2554555 0.23987718 2.8906624 0 0 0 2.3454283e-038
-6.0346923 0.70482194 4.5075936 0 0 0 2.3477601e-038
-5.3589149 0.37550968 3.1706436 0 0 0 9.1633709e-041
-5.3354254 0.7050668 3.0083199 0 0 0 1.5611676e-038
-5.7174587 0.86462408 4.2940464 0 0 0 2.3460382e-038
-6.1231661 0.42843789 3.9135289 0 0 0 9.1622499e-041
-6.5825901 0.35437253 3.059792 0 0 0 5.4179355e-039
-5.9025931 0.55812305 3.4644997 0 0 0 4.1252825e-041
-6.0285783 0.29271343 2.982528 0 0 0 2.0387121e-038
-6.8003654 0.22904733 3.0753434 0 0 0 2.2315667e-038
-6.5879722 0.51886588 3.4696269 0 0 0 2.3504865e-038
-6.0939813 0.30015761 3.5073943 0 0 0 9.1622499e-041
-6.4948993 0.14477855 3.0252373 0 0 0 1.9836108e-038
-5.7584548 0.16931885 3.9150658 0 0 0 1.5244334e-038
-6.1505852 0.5519309 3.9405141 0 0 0 9.1517401e-041
-6.8882279 0.31306359 3.099571 0 0 0 2.344962e-038
-6.767776 0.99408478 3.1943231 0 0 0 2.3330521e-038
-5.8103127 0.67642576 3.3610897 0 0 0 9.1685557e-041
-5.7779412 0.86873436 3.500828 0 0 0 2.2315667e-038
-6.3722134 0.52301627 3.5639846 0 0 0 9.1507592e-041
-5.7239323 0.348187 4.0798783 0 0 0 1.5152498e-038
-5.7961493 0.81305516 4.5022774 0 0 0 2.3434912e-038
-5.5365162 0.72928822 2.9811795 0 0 0 2.0662628e-038
-6.5095406 0.094870552 3.7947102 0 0 0 2.3436347e-038
-5.8829293 0.5898661 4.4492688 0 0 0 2.350917e-038
-6.1214604 0.71383542 3.9038501 0 0 0 9.158046e-041
-5.2690215 0.097369708 3.1291974 0 0 0 2.3489081e-038
-5.4917116 0.42199051 3.6200795 0 0 0 9.5505329e-039
-5.6678982 0.54174984 3.075927 0 0 0 2.7547062e-039
-6.0071754 0.040031176 3.0463068 0 0 0 2.3447109e-038
-6.9272451 0.14631075 2.9146812 0 0 0 2.3471861e-038
-6.6759458 0.15582831 3.3969073 0 0 0 2.3475807e-038
-6.154511 0.32272822 3.6764715 0 0 0 9.1682755e-041
-6.5693741 0.65020084 3.5200753 0 0 0 2.3498408e-038
-6.2557235 0.26755974 3.8938959 0 0 0 9.0913554e-039
-5.5092378 0.12627485 2.8617063 0 0 0 2.3341283e-038
-6.5954051 0.8293277 2.9936831 0 0 0 1.8274905e-038
-6.502995 0.31402922 3.729533 0 0 0 2.3464328e-038
-6.8027587 0.2760196 3.0870392 0 0 0 2.3508093e-038
-5.9579434 0.019524476 4.6565466 0 0 0 2.3432042e-038
-5.6960301 0.38953725 3.295083 0 0 0 8.1072123e-041
-5.0552258 0.21963632 3.0706313 0 0 0 2.3482265e-038
-5.6038566 0.51505572 4.0609961 0 0 0 2.3472579e-038
-6.8338051 0.72852272 2.9845176 0 0 0 2.0019779e-038
-5.2856736 0.65510517 3.4828076 0 0 0 2.3479753e-038
-5.54526 0.6312803 3.3459501 0 0 0 9.1814477e-041
-5.8615394 0.69783854 3.2883899 0 0 0 9.1626703e-041
-6.8304873 0.7395137 2.910522 0 0 0 2.3468633e-038
-4.9992375 0.54768848 2.9680681 0 0 0 2.3484058e-038
-5.6232271 0.0016753194 3.5880983 0 0 0 2.3419128e-038
-5.8939781 0.60610431 3.0261986 0 0 0 1.2213762e-038
-5.9450173 0.1645928 4.4436684 0 0 0 1.6162689e-038
-6.4917622 0.70210654 3.2989075 0 0 0 9.1587466e-041
-6.0305738 0.6234048 3.7754214 0 0 0 8.8964236e-041
-6.3915248 0.52307087 3.2090771 0 0 0 9.1813075e-041
-5.4128861 0.83468229 2.9300978 0 0 0 2.3482982e-038
-6.1172481 0.42875192 3.2199988 0 0 0 8.7529306e-041
-6.3675818 0.49620971 3.8187475 0 0 0 2.1397312e-038
-5.3564553 0.52659053 3.5642102 0 0 0 2.3495179e-038
-6.6316385 0.83015347 3.3289959 0 0 0 1.8550411e-038
-5.0249252 0.48177749 2.9096932 0 0 0 2.3468274e-038
-5.7456684 0.3454437 4.4558444 0 0 0 2.3419845e-038
-5.8602724 0.085949317 3.0402846 0 0 0 2.3480471e-038
-5.7821274 0.4376514 2.921418 0 0 0 2.3476884e-038
-6.0862255 0.84116077 3.380065 0 0 0 1.7172879e-038
-6.5022469 0.62357235 3.4329677 0 0 0 6.979139e-039
-6.1100082 0.72073501 4.3756113 0 0 0 2.347796e-038
-6.2120986 0.59875292 3.684782 0 0 0 9.1733201e-041
-5.9257979 0.36211532 3.5055053 0 0 0 9.179626e-041
-5.2580347 0.25610805 3.4908648 0 0 0 2.3459306e-038
-5.6981111 0.18124153 3.0184815 0 0 0 1.368313e-038
-5.1579261 0.77015215 3.1326237 0 0 0 1.9376931e-038
-6.0421643 0.99808586 2.9728665 0 0 0 2.3419128e-038
-6.1050014 0.62083602 3.7595198 0 0 0 8.8246771e-041
-6.3032498 0.80260122 3.9670689 0 0 0 2.3504147e-038
-5.4946971 0.33262014 3.275418 0 0 0 9.1710781e-041
-6.3323808 0.90661025 3.9408405 0 0 0 2.3486211e-038
-6.2820582 0.16624284 2.9997942 0 0 0 1.7172879e-038
-6.7664266 0.1453833 3.2417855 0 0 0 2.347509e-038
-6.2186103 0.90013778 3.5998352 0 0 0 2.3490874e-038
-6.5478263 0.11740051 3.6853802 0 0 0 2.3451772e-038
-5.8552666 0.18892142 4.1197138 0 0 0 1.0377052e-038
-5.4615545 0.11347174 3.1022549 0 0 0 2.350056e-038
-5.8649011 0.26415026 3.0266271 0 0 0 1.2121927e-038
-6.0874658 0.0029773994 3.5092676 0 0 0 2.3420204e-038
-6.4348955 0.26417345 3.5916243 0 0 0 9.3668619e-039
-6.2097521 0.38926601 3.8185863 0 0 0 9.154823e-041
-5.8364854 0.99703956 4.2849059 0 0 0 2.3328368e-038
-6.0715256 0.064903155 3.4374914 0 0 0 2.3465404e-038
-5.5494299 0.25310656 3.2054644 0 0 0 9.1485172e-041
-5.7828102 0.31068355 3.0224218 0 0 0 1.2948446e-038
-5.3691115 0.8111729 2.970057 0 0 0 2.2683009e-038
-5.822474 0.85684091 3.2996275 0 0 0 2.0111615e-038
-5.9319773 0.6376636 2.9425664 0 0 0 2.3492309e-038
-6.0763302 0.29653436 2.85724 0 0 0 2.342989e-038
-5.804081 0.56795907 3.4476762 0 0 0 4.8786206e-041
-6.5167761 0.47789651 3.5938499 0 0 0 2.3504865e-038
-5.0036473 0.43766606 3.0893111 0 0 0 2.3442804e-038
-5.6469574 0.90993351 3.4907718 0 0 0 2.34837e-038
-5.9636288 0.17581277 2.8540819 0 0 0 2.3427737e-038
-6.020124 0.47554961 3.1579292 0 0 0 9.1670143e-041
-5.8865147 0.30705309 4.3205538 0 0 0 1.0560723e-038
-5.9904771 0.5198555 3.5690889 0 0 0 1.4706627e-041
-5.1697922 0.41482565 2.9123921 0 0 0 2.3470068e-038
-5.9393649 0.43356782 3.570389 0 0 0 4.9503671e-041
-5.2965045 0.28957248 3.0780442 0 0 0 1.7445157e-039
-5.4454947 0.48194361 3.8244987 0 0 0 2.3365677e-038
-5.3188791 0.36246535 2.8733275 0 0 0 2.3441728e-038
-6.4100652 0.013247345 2.8693106 0 0 0 2.3427379e-038
-5.8093867 0.8255254 3.5006609 0 0 0 1.4233784e-038
-5.7418332 0.46049473 4.0690408 0 0 0 1.1203572e-038
-5.5267658 0.52605206 3.1401594 0 0 0 9.1616894e-041
-5.9270697 0.38865185 3.4782033 0 0 0 8.1430855e-041
-5.6743274 0.88118124 4.0746355 0 0 0 2.3504506e-038
-6.8968616 0.93723011 3.033371 0 0 0 2.3463611e-038
-5.1627946 0.18306069 2.9860151 0 0 0 1.9744273e-038
-5.0870457 0.28949538 3.1137335 0 0 0 2.3486928e-038
-5.4599419 0.73367536 3.40084 0 0 0 9.1534217e-041
-6.5676703 0.8247512 3.0342746 0 0 0 1.4142308e-038
-6.6923079 0.50433844 2.8569834 0 0 0 2.3429531e-038
-6.4688125 0.96875322 2.9417496 0 0 0 2.3440652e-038
-5.3261333 0.46040368 2.933461 0 0 0 2.3485493e-038
-6.6744261 0.89462471 3.4758904 0 0 0 2.3447826e-038
-5.519731 0.33108562 4.0224419 0 0 0 2.3433118e-038
-6.052453 0.35641843 3.0459402 0 0 0 8.0811649e-039
-5.2155509 0.83349919 3.0506139 0 0 0 1.5795347e-038
-6.280056 0.9249503 4.0636048 0 0 0 2.3472579e-038
-6.925261 0.56711864 2.9923983 0 0 0 2.3465045e-038
-5.493331 0.33289403 3.9516516 0 0 0 2.3441728e-038
-6.3966861 0.46524844 3.9102194 0 0 0 2.3465763e-038
-6.6415749 0.026461646 3.4162185 0 0 0 2.3437064e-038
-6.2198873 0.086837694 4.1355567 0 0 0 2.3481188e-038
-5.7474027 0.72702146 3.3433831 0 0 0 9.1541223e-041
-6.6714959 0.4948144 3.2449269 0 0 0 1.7172879e-038
-6.6788163 0.054887868 3.2712653 0 0 0 2.3457871e-038
-5.2412901 0.082901955 3.0335999 0 0 0 2.3478319e-038
-5.9211998 0.57184482 3.9013293 0 0 0 5.3090995e-041
-6.5561123 0.77555275 3.4945402 0 0 0 2.1764654e-038
-6.014081 0.83945614 3.760901 0 0 0 1.6897373e-038
-5.8629456 0.79246026 4.6533532 0 0 0 2.3422715e-038
-6.3742843 0.74979258 3.6230431 0 0 0 3.9485676e-039
-6.2518668 0.75546658 3.8591282 0 0 0 5.693442e-039
-5.6743269 0.77356762 4.2167335 0 0 0 2.3460741e-038
-5.8724313 0.62907565 3.5802293 0 0 0 9.1820082e-041
-6.5156841 0.36684886 3.6643631 0 0 0 2.3479753e-038
-5.5915337 0.70769054 3.3302064 0 0 0 9.1601479e-041
-5.6315432 0.74635345 3.8559425 0 0 0 8.9076844e-039
-5.4884477 0.72267711 3.8232048 0 0 0 2.3485134e-038
-6.1218405 0.76121777 4.5104704 0 0 0 2.3421639e-038
-5.8934722 0.16788551 3.0020499 0 0 0 1.6713702e-038
-5.7997813 0.015187992 2.8600163 0 0 0 2.3428813e-038
-6.1592698 0.72346443 3.3889956 0 0 0 9.1552434e-041
-6.7926178 0.25231379 2.9700685 0 0 0 2.2774844e-038
-6.0589399 0.32623026 3.9936001 0 0 0 9.1670143e-041
-6.2251835 0.78570485 3.6416914 0 0 0 6.7036325e-039
-6.1232238 0.43567634 4.4156823 0 0 0 2.3455001e-038
-6.4337525 0.63863319 3.2971883 0 0 0 9.1734603e-041
-6.6989946 0.21201076 3.2391765 0 0 0 2.1121805e-038
-6.3128233 0.72826731 4.0061336 0 0 0 2.3484058e-038
-6.1388731 0.7699129 4.3852105 0 0 0 2.3456077e-038
-5.1793342 0.10223293 3.1099875 0 0 0 2.3492668e-038
-5.8232961 0.36037177 3.2087696 0 0 0 9.1794859e-041
-5.8790727 0.08378049 4.3885756 0 0 0 2.3479036e-038
-5.7459564 0.88380891 3.698128 0 0 0 2.3502712e-038
-6.22754 0.1615963 3.7079136 0 0 0 1.6713702e-038
-6.393199 0.030402796 3.662395 0 0 0 2.3439934e-038
-6.5239868 0.73352337 2.98489 0 0 0 1.9927944e-038
-5.5690012 0.31746954 2.8458366 0 0 0 2.3421639e-038
-6.2333322 0.21029556 4.2817788 0 0 0 2.3434194e-038
-5.54948 0.45923057 3.937458 0 0 0 2.3482623e-038
-6.1145115 0.10475808 3.230401 0 0 0 2.3494462e-038
-6.4076595 0.39612451 2.9834628 0 0 0 2.020345e-038
-5.6716318 0.77212131 3.6300349 0 0 0 3.8567321e-039
-6.2545333 0.67023081 3.3082287 0 0 0 9.1706577e-041
-6.1606741 0.96342868 4.1231828 0 0 0 2.3444598e-038
-6.3174019 0.33796811 4.1323442 0 0 0 2.3435271e-038
-5.8289828 0.57974422 3.1702352 0 0 0 9.1700972e-041
-5.4657016 0.67937171 3.0635567 0 0 0 4.4995806e-039
-6.3101931 0.88933867 3.6970196 0 0 0 2.3498766e-038
-5.5104642 0.19320728 2.8565688 0 0 0 2.3429531e-038
-6.5038953 0.64119148 2.9157393 0 0 0 2.3472579e-038
-5.8532605 0.89254653 2.9004772 0 0 0 2.3461458e-038
-6.5616965 0.44036385 3.2711592 0 0 0 1.5608447e-039
-6.3688555 0.5028342 2.8740733 0 0 0 2.3442087e-038
-6.2236433 0.058983944 3.1990118 0 0 0 2.3461099e-038
-6.6345782 0.80970412 2.8520238 0 0 0 2.3425944e-038
-6.3702092 0.98548222 3.46733 0 0 0 2.3428455e-038
-5.9875984 0.2428357 3.9345396 0 0 0 1.0098317e-039
-5.3420568 0.21684892 3.3888092 0 0 0 1.3223953e-038
-5.7942162 0.16153571 4.2163868 0 0 0 1.6713702e-038
-6.3400025 0.2923626 3.1227262 0 0 0 9.1570651e-041
-5.8917651 0.46659619 4.2536025 0 0 0 3.7648966e-039
-5.881577 0.29678401 3.9555948 0 0 0 9.1616894e-041
-6.0407801 0.54995918 4.1121922 0 0 0 9.1549631e-041
-5.3625607 0.95768666 3.4082401 0 0 0 2.3448903e-038
-6.0100012 0.40584511 2.9169672 0 0 0 2.3473296e-038
-6.6194363 0.23279443 3.0124195 0 0 0 1.4785156e-038
-6.6956105 0.9846226 3.1801531 0 0 0 2.3429172e-038
-5.1485696 0.84295648 3.2030404 0 0 0 2.3493744e-038
-6.5593195 0.20338665 3.0552902 0 0 0 8.4485069e-039
-6.290875 0.6026684 4.1616182 0 0 0 2.3441369e-038
-6.2339344 0.85424972 4.2063251 0 0 0 2.3461099e-038
-6.3638477 0.024695009 3.1599333 0 0 0 2.3435988e-038
-5.6799445 0.61478829 3.8770747 0 0 0 3.3975546e-039
-6.1121264 0.29979664 2.9585235 0 0 0 2.3503789e-038
-6.5685945 0.62908685 3.191323 0 0 0 9.1552434e-041
-5.654253 0.25963005 3.1278861 0 0 0 9.1513198e-041
-6.3816147 0.84724462 3.421731 0 0 0 1.836674e-038
-6.0958467 0.57482779 4.1183357 0 0 0 5.1424291e-039
-6.3614702 0.56641215 3.5767717 0 0 0 9.1508994e-041
-6.2420602 0.27643365 4.2518177 0 0 0 2.3439575e-038
-5.3341212 0.74919653 3.4997511 0 0 0 2.3504147e-038
-6.9089894 0.73587054 2.9727123 0 0 0 2.3482623e-038
-6.4387984 0.12998991 3.452661 0 0 0 2.2591173e-038
-6.3376846 0.13082823 3.4434338 0 0 0 2.2407502e-038
-5.7960534 0.86933982 4.3876462 0 0 0 2.3476166e-038
-6.1195502 0.32788152 3.5237501 0 0 0 9.1700972e-041
-6.0402312 0.75138068 3.2805779 0 0 0 1.8331226e-040
-5.7420087 0.15054958 3.0847642 0 0 0 1.8734082e-038
-5.9076977 0.6165756 3.5213892 0 0 0 8.4659447e-041
-5.4655747 0.53882158 3.0971308 0 0 0 9.1147459e-041
-6.6951575 0.67445445 3.4850416 0 0 0 2.3431683e-038
-6.1132922 0.1437867 4.2522278 0 0 0 2.0570434e-038
-6.3293982 0.73361003 2.9429879 0 0 0 2.3492309e-038
-5.9194293 0.5397591 4.6419678 0 0 0 2.3370699e-038
-6.2042956 0.80675805 3.0903223 0 0 0 1.0101546e-038
-5.9759355 0.64649594 3.4021688 0 0 0 9.1776642e-041
-5.6630764 0.86335921 4.0385118 0 0 0 2.1305476e-038
-5.0859523 0.1119364 3.1230247 0 0 0 2.3482982e-038
-6.0862126 0.30895975 4.2251267 0 0 0 1.3591295e-038
-6.2475648 0.31830522 3.4434142 0 0 0 9.1674347e-041
-5.686892 0.46335509 3.5146828 0 0 0 6.0265643e-041
-5.5480185 0.96585566 3.6144106 0 0 0 2.3442804e-038
-5.8089757 0.80934715 3.383729 0 0 0 1.1019901e-038
-6.0698481 0.52132171 3.4140651 0 0 0 1.5424092e-041
-6.7456856 0.80583644 3.4086866 0 0 0 2.3427379e-038
-5.2151847 0.05105947 3.0376031 0 0 0 2.3455001e-038
-5.6216068 0.99861032 3.7956898 0 0 0 2.3418769e-038
-5.9696698 0.94569975 4.1537962 0 0 0 2.3365677e-038
-6.1305537 0.00011900021 2.9347293 0 0 0 2.3418052e-038
-5.6725245 0.70559394 3.1188612 0 0 0 9.1563644e-041
-5.5693851 0.082014419 3.742255 0 0 0 2.3477601e-038
-5.7613521 0.24058618 3.288358 0 0 0 1.3771737e-039
-5.6364007 0.42382592 3.6619744 0 0 0 9.1266569e-041
-6.4453697 0.77738839 3.4011545 0 0 0 5.0505936e-039
-6.4032969 0.80662876 3.8409624 0 0 0 2.3486928e-038
-6.2957134 0.81728554 3.7654653 0 0 0 1.2764775e-038
-6.2170234 0.71205068 3.8714511 0 0 0 1.2853382e-039
-6.5057397 0.44276658 2.9709904 0 0 0 2.2591173e-038
-5.7268291 0.76217288 4.2037444 0 0 0 2.3498766e-038
-5.9281826 0.060112525 3.2649362 0 0 0 2.3461817e-038
-6.13165 0.040904589 4.2530727 0 0 0 2.3447826e-038
-6.5701551 0.53971219 2.9142473 0 0 0 2.3471503e-038
-6.5866141 0.43341833 3.0050979 0 0 0 1.6162689e-038
-5.9443111 0.090095423 3.6911268 0 0 0 2.34837e-038
-6.3498402 0.16777682 3.091156 0 0 0 1.551984e-038
-5.5727048 0.19279042 3.8927946 0 0 0 2.2407144e-038
-6.1144404 0.57507968 3.9142826 0 0 0 9.1646321e-041
-5.4001498 0.208784 3.3635459 0 0 0 7.2546455e-039
-5.6808739 0.47695386 3.4513848 0 0 0 4.1252825e-041
-5.513885 0.38258559 3.5964386 0 0 0 4.0404031e-039
-5.9703479 0.084050931 3.1689897 0 0 0 2.3479395e-038
-5.4669714 0.20428324 3.5749784 0 0 0 1.0101546e-038
-6.1607418 0.074623466 2.9426739 0 0 0 2.347222e-038
-6.0136547 0.10720552 4.0751705 0 0 0 2.3496255e-038
-5.9163756 0.430428 3.082695 0 0 0 9.1799623e-040
-6.0453424 0.024958132 3.0151653 0 0 0 2.3435988e-038
-5.9004626 0.59957796 3.7514465 0 0 0 7.3538742e-041
-5.718111 0.5354864 3.1268713 0 0 0 9.1586065e-041
-5.8118501 0.37090948 3.0358202 0 0 0 1.0285217e-038
-5.6831532 0.021075139 3.9069762 0 0 0 2.3433118e-038
-6.3054814 0.46352863 3.7782669 0 0 0 6.979139e-039
-6.3200798 0.77297467 3.8242981 0 0 0 1.4233784e-038
-5.9513574 0.96463805 4.2109213 0 0 0 2.3443522e-038
-6.1768379 0.72807175 3.4387138 0 0 0 9.1182491e-041
-6.552608 0.87364101 3.5430634 0 0 0 2.350056e-038
-5.6205287 0.36188519 4.0423441 0 0 0 2.3489798e-038
-6.2088914 0.33986616 4.0101242 0 0 0 1.3499459e-038
-6.533484 0.671399 3.6442664 0 0 0 2.3475807e-038
-5.4067869 0.47664902 3.7530937 0 0 0 2.3458588e-038
-5.9205704 0.77894735 3.3189502 0 0 0 5.4179355e-039
-5.7495046 0.54057139 2.9791875 0 0 0 2.102997e-038
-6.3383675 0.88459229 2.8586452 0 0 0 2.3430966e-038
-6.0626278 0.86254007 3.9457471 0 0 0 2.1213641e-038
-6.3735209 0.0586401 4.0071917 0 0 0 2.3445315e-038
-6.0854878 0.68820786 3.0075824 0 0 0 1.5703511e-038
-5.638145 0.81879681 3.2801499 0 0 0 1.3040282e-038
-6.6395054 0.10641658 3.2316909 0 0 0 2.3495538e-038
-5.8761768 0.75922477 3.5445762 0 0 0 1.7445157e-039
-5.166563 0.18647319 3.0132899 0 0 0 1.4601485e-038
-5.2988324 0.44849744 3.3537323 0 0 0 1.6989208e-038
-5.7658415 0.860641 4.2914662 0 0 0 2.349195e-038
-5.3251357 0.8401016 3.6787267 0 0 0 2.3433836e-038
-6.2763543 0.29959255 4.2453098 0 0 0 2.3420204e-038
-6.1836524 0.15127768 3.5936279 0 0 0 1.8642247e-038
-5.5668993 0.83961964 3.7739553 0 0 0 1.6897373e-038
-5.8827667 0.028734704 3.0145984 0 0 0 2.3438858e-038
-5.7679753 0.042055637 2.9333978 0 0 0 2.3448544e-038
-5.4987803 0.79738003 3.4106026 0 0 0 7.7138229e-039
-5.2846818 0.062653035 3.0983775 0 0 0 2.3463611e-038
-5.3039174 0.65382618 3.3457928 0 0 0 1.5428005e-038
-5.7622919 0.73221338 3.8000059 0 0 0 9.1530013e-041
-5.8375998 0.46430483 3.2120459 0 0 0 9.1820082e-041
-5.8260837 0.92664874 3.9222877 0 0 0 2.3471503e-038
-6.517262 0.41472951 3.6615398 0 0 0 2.3480112e-038
-5.1975703 0.34340173 3.0184114 0 0 0 1.368313e-038
-6.4457884 0.0053912494 2.9297264 0 0 0 2.3421639e-038
-6.8658099 0.91877717 3.0390558 0 0 0 2.3477242e-038
-5.8192019 0.039344475 3.9967546 0 0 0 2.344675e-038
-5.843133 0.12297189 4.0953956 0 0 0 2.3507735e-038
-6.4654455 0.22913037 2.9232063 0 0 0 2.347796e-038
-6.1910882 0.40208241 3.4246671 0 0 0 7.2462545e-041
-5.2693009 0.58548176 3.3256774 0 0 0 1.919326e-038
-6.4498739 0.35919783 3.3116403 0 0 0 9.1670143e-041
-5.5137863 0.92966998 3.4150257 0 0 0 2.346935e-038
-5.9310365 0.56468928 3.8369784 0 0 0 4.7351276e-041
-6.7839904 0.37316507 3.1306634 0 0 0 2.3504147e-038
-6.2358956 0.03556573 3.2512443 0 0 0 2.3352045e-038
-5.8946705 0.059482791 3.2244134 0 0 0 2.3461458e-038
-5.8682156 0.63925999 4.3134699 0 0 0 1.3315788e-038
-5.4897642 0.18664722 3.9246645 0 0 0 2.3449261e-038
-6.1457314 0.16156039 4.3507833 0 0 0 2.3464328e-038
-5.7796059 0.24797986 3.2051558 0 0 0 9.1476764e-041
-6.3534017 0.77263951 3.162111 0 0 0 4.0404031e-039
-5.8511047 0.026606264 4.0457006 0 0 0 2.3437423e-038
-5.4867063 0.35306764 3.1010725 0 0 0 9.1506191e-041
-6.3761749 0.51431376 3.5933363 0 0 0 1.4690092e-039
-5.1940274 0.29473138 2.893121 0 0 0 2.3456077e-038
-6.1364093 0.062768318 4.09271 0 0 0 2.3463611e-038
-6.441473 0.13961518 3.1492651 0 0 0 2.0754463e-038
-6.2846699 0.97355849 3.5682955 0 0 0 2.3437064e-038
-5.735312 0.93135929 3.5666077 0 0 0 2.3467915e-038
-5.377171 0.27450144 3.7263491 0 0 0 2.344962e-038
-6.0639391 0.17359634 4.2199583 0 0 0 1.4417814e-038
-5.9756441 0.11247067 3.0756183 0 0 0 2.3499843e-038
-5.6126103 0.096025757 3.9713013 0 0 0 2.3488004e-038
-6.8860397 0.55844408 3.187959 0 0 0 2.3418769e-038
-5.8340178 0.81034553 3.8956583 0 0 0 1.0928065e-038
-5.5436449 0.26501951 3.304718 0 0 0 9.1524408e-041
-6.0187163 0.3133361 3.5955718 0 0 0 9.1660334e-041
-6.2152963 0.94326478 4.1090107 0 0 0 2.3459306e-038
-5.75495 0.4848682 3.463407 0 0 0 1.1478036e-041
-6.28193 0.16209598 4.0122905 0 0 0 2.3501277e-038
-4.946877 0.96923804 3.0189099 0 0 0 2.3432401e-038
-6.5692792 0.91937751 3.5492065 0 0 0 2.3476884e-038
-6.3033957 0.34332979 4.0654106 0 0 0 2.3468274e-038
-6.1270146 0.045883462 4.4184995 0 0 0 2.3451414e-038
-6.4513612 0.41687527 3.704854 0 0 0 2.3505941e-038
-5.2514691 0.084300116 2.8901827 0 0 0 2.3453925e-038
-5.6578951 0.51894039 3.8243558 0 0 0 1.6526802e-039
-6.5381732 0.67724162 3.77455 0 0 0 2.3333749e-038
-6.4162264 0.85334164 2.9237819 0 0 0 2.3478319e-038
-5.7596507 0.42215925 3.6307256 0 0 0 5.6319587e-041
-6.0126348 0.32206628 2.9682043 0 0 0 2.3050351e-038
-5.2229795 0.98314315 3.4286611 0 0 0 2.3430248e-038
-4.8879228 0.43389186 2.9494855 0 0 0 2.3420204e-038
-6.8624959 0.075629666 3.1363347 0 0 0 2.345249e-038
-6.0161195 0.60822719 2.9772477 0 0 0 2.1397312e-038
-6.3515091 0.10753883 3.4674382 0 0 0 2.3496255e-038
-6.0954337 0.39720815 4.2366862 0 0 0 1.6162689e-038
-5.6468997 0.25906581 3.4045916 0 0 0 9.1144656e-041
-5.6717548 0.65429604 3.4792538 0 0 0 9.1751418e-041
-6.7165332 0.76341915 3.0223153 0 0 0 1.2948446e-038
-5.7793078 0.088492796 3.5249634 0 0 0 2.3482623e-038
-6.3145361 0.63601768 2.9892333 0 0 0 1.9101424e-038
-5.5168962 0.047293 3.362478 0 0 0 2.345249e-038
-6.2818804 0.16403607 3.92381 0 0 0 1.7264715e-038
-6.2141819 0.49439505 3.2589056 0 0 0 6.0624375e-041
-5.9048386 0.64077854 4.6978469 0 0 0 2.3433118e-038
-5.9816613 0.92558336 4.099813 0 0 0 2.347222e-038
-5.0517473 0.16850662 3.0498266 0 0 0 2.3487646e-038
-4.8446293 0.92575437 2.8460572 0 0 0 2.3421639e-038
-6.7172947 0.77032274 2.8936865 0 0 0 2.3456436e-038
-5.8715644 0.64809221 4.574481 0 0 0 2.3456795e-038
-5.9767365 0.02921438 3.5631652 0 0 0 2.3439217e-038
-6.5039225 0.88798475 3.8488271 0 0 0 2.3420204e-038
-6.4416389 0.52610034 3.1554737 0 0 0 9.166734e-041
-6.2826009 0.07922028 3.0398619 0 0 0 2.3475807e-038
-6.0109272 0.65351331 3.4611943 0 0 0 9.1757023e-041
-6.1200471 0.25015852 4.3194208 0 0 0 2.349195e-038
-6.8312945 0.24974211 2.988075 0 0 0 1.9376931e-038
-6.4719119 0.19196573 3.7005942 0 0 0 2.3494462e-038
-5.729331 0.13302332 4.1131163 0 0 0 2.204016e-038
-5.5262809 0.99146378 3.5862846 0 0 0 2.342415e-038
-6.7885499 0.10298225 3.339541 0 0 0 2.3425226e-038
-6.3650022 0.0044985181 3.0446315 0 0 0 2.342128e-038
-5.8326468 0.67880064 4.5638466 0 0 0 2.3435988e-038
-6.1041956 0.15275665 3.7690594 0 0 0 1.836674e-038
-6.1723123 0.54908139 3.6454766 0 0 0 7.8200862e-041
-5.0136619 0.78523493 2.9984221 0 0 0 2.3482265e-038
-5.1620479 0.54268724 3.3834956 0 0 0 2.3437064e-038
-6.1436419 0.87819761 3.5413392 0 0 0 2.3506658e-038
-5.3002973 0.46588704 3.6182437 0 0 0 2.3439934e-038
-6.6659465 0.14860617 2.9323952 0 0 0 2.3484776e-038
-5.7757778 0.19880432 2.873914 0 0 0 2.3442087e-038
-6.6329446 0.96657979 3.1831272 0 0 0 2.3442087e-038
-6.0026612 0.64576149 3.7742662 0 0 0 9.1776642e-041
-4.9860773 0.86943746 3.1091545 0 0 0 2.3424509e-038
-5.6494761 0.7744531 3.4584575 0 0 0 4.4077451e-039
-6.2310367 0.69092786 3.3656127 0 0 0 9.164492e-041
-5.1480942 0.91152114 3.0357699 0 0 0 2.3482623e-038
-6.0607648 0.045088075 2.9608815 0 0 0 2.3450696e-038
-5.9693694 0.48390496 3.9860206 0 0 0 7.4973672e-041
-5.6763935 0.45367813 3.0334551 0 0 0 9.7342039e-039
-5.7207408 0.88924915 4.3163252 0 0 0 2.3454283e-038
-5.7923322 0.38018426 4.3225856 0 0 0 2.3497331e-038
-6.327806 0.36397031 3.1116359 0 0 0 9.1534217e-041
-6.0737743 0.48178503 4.5059986 0 0 0 2.3453566e-038
-5.693501 0.2193553 4.0031338 0 0 0 1.3040282e-038
-5.514534 0.33676994 3.6749983 0 0 0 1.1662749e-038
-5.6431303 0.77767462 4.0569892 0 0 0 2.3498766e-038
-6.2155519 0.62398082 3.7275662 0 0 0 9.1657531e-041
-6.201005 0.053351108 3.9367733 0 0 0 2.3456795e-038
-5.8203287 0.8147732 3.2952728 0 0 0 1.2305598e-038
-5.8870831 0.79222953 3.0883932 0 0 0 7.4383165e-039
-6.0168247 0.42785668 4.1119719 0 0 0 9.1605683e-041
-5.8479676 0.16013512 3.6487558 0 0 0 1.6989208e-038
-5.4953642 0.53487545 2.9499495 0 0 0 2.349769e-038
-5.350708 0.97486871 3.7093592 0 0 0 2.3436347e-038
-5.2543097 0.063864239 3.4504745 0 0 0 2.3464328e-038
-5.2344203 0.65696174 3.1707389 0 0 0 1.0377052e-038
-6.7956195 0.094528213 3.1286006 0 0 0 2.3486928e-038
-5.136353 0.12055288 3.1060598 0 0 0 2.3505941e-038
-5.778019 0.69754124 3.4978669 0 0 0 9.163511e-041
-5.2626629 0.042373203 3.1352358 0 0 0 2.3448903e-038
-6.0174022 0.75317907 4.0825996 0 0 0 9.1476764e-041
-5.3137078 0.52301896 3.432055 0 0 0 2.1856489e-038
-6.421783 0.67938709 3.6250057 0 0 0 1.2121927e-038
-6.4903731 0.19323128 3.0170386 0 0 0 1.3958637e-038
-5.5273142 0.58052289 3.2482474 0 0 0 6.8516488e-041
-5.8914495 0.43561995 3.1671686 0 0 0 9.1698169e-041
-5.9460278 0.749834 3.0077944 0 0 0 1.5703511e-038
-5.1824026 0.6890586 3.2316968 0 0 0 2.3504865e-038
-6.2245297 0.22089532 3.4029527 0 0 0 4.9587581e-039
-6.1299953 0.87720019 3.606782 0 0 0 2.3507376e-038
-5.9135575 0.36538649 4.6763268 0 0 0 2.3446391e-038
-5.5451422 0.75021654 3.9512184 0 0 0 2.3474731e-038
-6.7064953 0.37244409 3.4532139 0 0 0 2.3435988e-038
-5.3728633 0.3343218 3.6447921 0 0 0 2.3476525e-038
-5.2180128 0.60976702 3.0594354 0 0 0 5.7852775e-039
-6.082901 0.60827583 3.5994153 0 0 0 7.8919728e-041
-5.3807597 0.002692848 3.3408024 0 0 0 2.3419845e-038
-6.9394221 0.76859766 2.9169655 0 0 0 2.3473296e-038
-6.3977809 0.49590752 3.168426 0 0 0 9.169957e-041
-6.5809169 0.71070516 3.6641045 0 0 0 2.3438858e-038
-6.1111932 0.7144987 3.3811219 0 0 0 9.1583262e-041
-5.7297578 0.32607231 3.8918302 0 0 0 9.1532816e-041
-5.6720834 0.36939231 2.9334137 0 0 0 2.3485493e-038
-5.5749321 0.99969172 2.8867924 0 0 0 2.3418052e-038
-6.3176317 0.75516981 2.8472357 0 0 0 2.3422715e-038
-6.6146798 0.79946661 3.2205925 0 0 0 9.3668619e-039
-6.4605446 0.27584937 2.9584932 0 0 0 2.3503789e-038
-6.6484699 0.79106015 3.2140067 0 0 0 1.000971e-038
-5.9340544 0.73431063 3.6297536 0 0 0 9.153702e-041
-5.1002665 0.89652991 3.0745711 0 0 0 2.3493385e-038
-5.5415077 0.81787616 3.3699267 0 0 0 1.2856611e-038
-6.7383204 0.92163706 3.1996257 0 0 0 2.347509e-038
-5.668334 0.35346046 3.6003742 0 0 0 9.177524e-041
-5.5675831 0.57512164 3.5833545 0 0 0 9.155944e-041
-5.986155 0.65851027 4.5119214 0 0 0 2.3506658e-038
-5.2884068 0.71190202 3.5890765 0 0 0 2.3442804e-038
-6.1496973 0.16292597 3.7604668 0 0 0 1.6438195e-038
-6.6470137 0.957358 3.0183351 0 0 0 2.3448903e-038
-5.2052369 0.12939806 2.9404469 0 0 0 2.3490515e-038
-5.6241775 0.057758171 3.757937 0 0 0 2.3460023e-038
-5.57689 0.6722216 3.0501368 0 0 0 6.979139e-039
-6.4698753 0.98096013 3.0569301 0 0 0 2.3431683e-038
-5.9949737 0.83962297 3.8649702 0 0 0 1.6897373e-038
-6.7632279 0.4434264 3.2073612 0 0 0 2.3489439e-038
-5.6978884 0.94742334 2.9308801 0 0 0 2.3456077e-038
-6.2914886 0.64071196 4.0403552 0 0 0 2.3485134e-038
-5.3352847 0.75086409 3.0448115 0 0 0 8.1730004e-039
-5.2668467 0.11005891 3.3408821 0 0 0 2.3498049e-038
-5.7618346 0.65688288 4.3847189 0 0 0 2.3455718e-038
-6.2136345 0.20819075 3.1301646 0 0 0 7.4383165e-039
-5.607873 0.67898571 3.784936 0 0 0 6.7036325e-039
-5.7466288 0.46837384 3.7332482 0 0 0 9.1792056e-041
-5.8139753 0.76369512 3.0177317 0 0 0 1.3774966e-038
-6.0310087 0.60194319 3.3530047 0 0 0 7.5332404e-041
-6.4799199 0.26797426 3.6199281 0 0 0 2.102997e-038
-5.7843933 0.21844043 4.0554376 0 0 0 5.9689485e-039
-5.4256458 0.80701321 2.9064858 0 0 0 2.3465763e-038
-5.7311587 0.56374019 4.1165409 0 0 0 1.735655e-038
-6.7533932 0.16237061 3.3063562 0 0 0 2.3459664e-038
-6.1340232 0.18101966 4.2870483 0 0 0 2.3495179e-038
-6.7521968 0.75232327 3.2846894 0 0 0 2.3468274e-038
-6.038538 0.90808898 4.5652838 0 0 0 2.3454283e-038
-5.2365718 0.16603355 3.4373877 0 0 0 2.3465045e-038
-6.0930657 0.98367393 4.0659833 0 0 0 2.342989e-038
-6.8360496 0.91559839 3.0083098 0 0 0 2.3479395e-038
-6.0963235 0.93129301 3.3811328 0 0 0 2.3467915e-038
-5.901206 0.58944911 3.1277776 0 0 0 9.158046e-041
-6.2755084 0.63500899 4.1806364 0 0 0 2.3444239e-038
-6.2479701 0.97941738 4.2601995 0 0 0 2.343276e-038
-6.681622 0.69824761 2.9298985 0 0 0 2.3482982e-038
-5.1552529 0.79993451 3.1817179 0 0 0 2.3505582e-038
-6.4222383 0.40174013 3.1332283 0 0 0 9.1604282e-041
-5.3021278 0.71606451 3.2298059 0 0 0 4.7750871e-039
-5.6632204 0.55107546 2.8891082 0 0 0 2.3453207e-038
-6.1004252 0.12769735 3.290411 0 0 0 2.3050351e-038
-5.2015514 0.79625762 3.3210056 0 0 0 2.3484776e-038
-6.9811568 0.43333694 2.8411064 0 0 0 2.3418052e-038
-5.3620586 0.7394954 3.5642157 0 0 0 2.3498766e-038
-6.4818635 0.16285712 3.6760581 0 0 0 2.3496973e-038
-5.6778865 0.81802899 2.8860266 0 0 0 2.3451055e-038
-6.9074965 0.36545268 2.9254396 0 0 0 2.3479753e-038
-5.9851995 0.42408937 3.3532922 0 0 0 5.6319587e-041
-6.112752 0.20501825 4.1960049 0 0 0 1.5244334e-038
-4.9059768 0.85036713 2.9587357 0 0 0 2.3428096e-038
-5.837285 0.61936325 3.7867403 0 0 0 8.7529306e-041
-5.7517591 0.3578285 3.1319261 0 0 0 9.1594473e-041
-5.530159 0.34825546 3.0827227 0 0 0 1.4690092e-039
-5.9171634 0.033299766 3.2706599 0 0 0 2.3442087e-038
-5.3858886 0.77148604 3.6168344 0 0 0 2.349482e-038
-6.2307334 0.20612904 3.7611516 0 0 0 7.9893294e-039
-5.8427672 0.5080418 4.4693227 0 0 0 2.3476525e-038
-6.1568356 0.7637853 3.6975808 0 0 0 2.2036932e-039
-5.7051144 0.00283803 3.779917 0 0 0 2.3419845e-038
-6.2263932 0.73242575 3.1351244 0 0 0 9.152721e-041
-6.117969 0.68673462 2.9865856 0 0 0 1.9652437e-038
-5.8146024 0.16544528 4.5031195 0 0 0 2.3446391e-038
-6.2618532 0.11473729 3.500114 0 0 0 2.3501636e-038
-6.1462398 0.17554072 4.0241289 0 0 0 1.4050472e-038
-6.2323146 0.74021888 3.1713691 0 0 0 9.1506191e-041
-5.5080466 0.033375423 4.0069981 0 0 0 2.3431325e-038
-6.1298862 0.19955595 3.559351 0 0 0 9.3668619e-039
-6.2981954 0.78142166 3.4653962 0 0 0 5.7852775e-039
-6.090322 0.87755626 4.314641 0 0 0 2.3507376e-038
-6.0278072 0.84709758 4.324779 0 0 0 1.8274905e-038
-6.3848543 0.97754079 3.7983096 0 0 0 2.3434194e-038
-5.9427824 0.80417711 3.428508 0 0 0 9.9178749e-039
-6.3588042 0.9969548 3.9204805 0 0 0 2.3420204e-038
-5.5372553 0.76522803 2.9748139 0 0 0 2.1856489e-038
-6.536406 0.14621572 2.8491728 0 0 0 2.3423791e-038
-5.9893503 0.11451416 3.3975091 0 0 0 2.3501636e-038
-5.7292209 0.65891117 3.3914242 0 0 0 9.1738807e-041
-6.8109345 0.65336096 3.2627282 0 0 0 2.3439217e-038
-6.0987306 0.94912398 3.0449562 0 0 0 2.3455001e-038
-5.5932097 0.85690814 3.6995292 0 0 0 2.0111615e-038
-5.9320431 0.55701339 3.0939846 0 0 0 9.1133446e-041
-5.3485699 0.20827828 2.9594572 0 0 0 2.3504506e-038
-6.3224669 0.032381833 2.8768907 0 0 0 2.3441369e-038
